# .PCD v0.7 - Point Cloud Data file format
VERSION 0.7
FIELDS x y z
SIZE 4 4 4
TYPE F F F
COUNT 1 1 1
WIDTH 475
HEIGHT 1
VIEWPOINT 0 0 0 1 0 0 0
POINTS 475
DATA ascii
9.7689571 -48.83757 -2.779289
9.4810343 -48.958214 -2.7803459
9.0378866 -49.084221 -2.7818947
8.821619 -48.731167 -2.7825322
8.7516079 -49.225098 -2.7828691
8.5590124 -49.946548 -2.7836311
8.0515032 -47.759521 -2.7847877
7.9934082 -48.345852 -2.7850733
7.7660966 -47.854919 -2.7856693
7.4207735 -47.54789 -2.7866285
7.1416688 -46.643681 -2.7872851
7.2525749 -48.466251 -2.7872381
7.1011553 -48.467152 -2.7876527
7.0575042 -50.440548 -2.7880166
5.1709003 -45.899261 -2.7920809
5.2105527 -47.729515 -2.7921071
5.1722579 -48.868629 -2.7922471
5.0190768 -48.757565 -2.7925465
4.2972026 -42.406929 -2.7936635
4.1658473 -42.398453 -2.7939107
4.029881 -42.420055 -2.7941604
4.4833636 -49.697304 -2.7935762
2.8630939 -51.106586 -2.7959402
2.3959939 -51.230751 -2.7964435
0.82136989 -51.117863 -2.7975988
0.6645878 -51.253353 -2.7976637
40.346622 -37.207218 -2.4822276
40.060135 -38.093723 -2.4907856
34.877979 -37.798462 -2.5538616
34.762691 -37.905991 -2.5557375
31.771778 -35.763393 -2.5818095
29.207823 -39.439655 -2.6246912
28.985329 -39.405872 -2.6269312
29.223839 -41.824539 -2.6322129
29.147503 -41.988045 -2.633492
29.15885 -42.27877 -2.6342602
30.551453 -44.574215 -2.6271033
27.247971 -41.129944 -2.6499736
27.06295 -41.108833 -2.6517324
26.891829 -41.13792 -2.6534882
24.977396 -38.739487 -2.6654892
24.870012 -38.832733 -2.6667776
30.639767 -48.11116 -2.6362226
30.293644 -47.893059 -2.638953
29.316814 -46.671085 -2.6450427
31.443743 -50.383572 -2.6345301
27.165184 -43.853622 -2.6581006
27.32003 -44.40477 -2.6580462
27.076788 -44.313805 -2.6600878
26.886435 -44.307129 -2.6618388
29.643709 -49.190212 -2.6483333
29.369473 -49.419048 -2.6513987
29.357773 -49.745876 -2.6522789
26.965071 -47.008835 -2.6674819
26.813427 -47.078449 -2.668982
26.887232 -47.887218 -2.6701057
26.844206 -48.524006 -2.6718421
26.736235 -48.680721 -2.6731031
27.061203 -49.631546 -2.6722848
26.913544 -49.723259 -2.6737332
24.728849 -46.367836 -2.6854882
24.896069 -47.732563 -2.686748
24.797876 -47.901943 -2.6878798
25.015062 -48.706924 -2.6876042
24.75658 -48.569592 -2.6894588
24.287088 -48.011688 -2.6922488
24.563559 -48.930538 -2.6916723
24.424463 -49.028004 -2.6929595
23.699732 -49.459618 -2.6993964
23.87582 -50.245243 -2.6993186
23.082684 -49.330944 -2.7039249
23.273659 -50.14093 -2.7037446
20.797281 -45.154705 -2.7147026
18.170134 -39.753014 -2.7261481
18.526026 -41.199753 -2.7256615
18.398098 -41.251331 -2.7266746
18.504725 -42.204132 -2.7272534
18.363756 -42.232674 -2.7283058
18.404623 -43.047546 -2.7291193
18.437496 -44.24836 -2.7304537
18.541216 -44.887047 -2.7305453
18.379223 -44.883018 -2.731648
18.367029 -45.249386 -2.7321782
18.285887 -45.448959 -2.7329645
15.903357 -39.837181 -2.7422729
18.40749 -47.870476 -2.7349272
18.317183 -48.075897 -2.7357314
18.132864 -48.033024 -2.7368634
17.973341 -48.05508 -2.7378976
17.765614 -47.945183 -2.7390909
17.99789 -49.068665 -2.7387757
17.813423 -49.029026 -2.7398772
17.771967 -49.389061 -2.7404814
17.630325 -49.471092 -2.7414215
17.468563 -49.496063 -2.7424207
13.769722 -40.483322 -2.7562323
14.055456 -42.190136 -2.7560229
13.736541 -41.647297 -2.757391
13.971631 -42.816628 -2.7570026
13.669587 -42.319988 -2.7582982
13.778699 -43.585495 -2.7586577
13.859596 -44.350716 -2.758781
13.705412 -44.852146 -2.7599604
13.922214 -46.0867 -2.7596662
13.750795 -45.996532 -2.7604995
13.751915 -46.527473 -2.7608421
13.578989 -46.462864 -2.7616847
13.651903 -47.263531 -2.7618177
13.707664 -48.052956 -2.7620215
11.952893 -42.276936 -2.7672668
11.6788 -41.781845 -2.768322
11.492754 -42.111633 -2.7694049
11.422033 -42.337231 -2.7698627
11.717414 -44.037788 -2.7693725
11.071536 -42.618679 -2.7716355
11.609822 -46.544407 -2.7710814
11.658134 -47.376255 -2.7712431
11.361178 -46.768471 -2.772264
11.56249 -48.282497 -2.7720447
11.10004 -46.947353 -2.7734497
11.324606 -48.608986 -2.7731767
9.805088 -48.845875 -2.7791607
9.5144053 -48.951996 -2.7802269
9.3770761 -49.912548 -2.7809463
9.0887756 -49.176781 -2.7817459
8.8422556 -48.702221 -2.7824578
8.9346352 -50.147469 -2.7824736
8.5890265 -49.916302 -2.783531
8.0727339 -47.735867 -2.7847178
7.7943587 -47.875866 -2.7855887
7.778944 -48.768402 -2.7857852
7.1654849 -46.640244 -2.7872174
7.1341414 -48.523163 -2.7875707
18.032839 -42.94915 -2.2595263
18.373486 -44.641975 -2.2395701
18.456749 -45.285446 -2.2313068
18.268801 -45.207764 -2.2297256
18.633194 -48.477123 -2.1867123
34.917698 -37.781818 -2.5227666
34.732544 -37.81834 -2.5206509
31.751596 -35.806686 -2.5162883
31.456846 -39.151505 -2.4732831
31.570913 -42.314877 -2.4351201
29.271908 -39.366859 -2.4480009
29.231081 -41.817421 -2.4162188
29.25915 -42.153179 -2.412183
29.128483 -42.25164 -2.4094563
30.675999 -45.909122 -2.37907
30.788988 -46.376881 -2.3742099
27.185137 -41.013046 -2.4037848
27.060532 -41.109341 -2.4010923
30.575354 -47.037636 -2.3630583
31.200794 -48.385601 -2.3524077
25.010242 -38.674995 -2.4097257
24.898056 -38.773098 -2.4071183
29.319424 -46.681618 -2.3532152
27.210855 -43.800522 -2.3670025
27.338816 -44.340656 -2.3612566
27.066908 -44.204681 -2.3598549
26.924299 -44.287888 -2.357029
29.462578 -49.380917 -2.318548
27.607561 -46.490406 -2.3353951
28.415373 -48.635353 -2.3159909
27.94738 -48.900505 -2.3066144
28.456875 -50.211697 -2.2948956
28.252621 -50.220055 -2.292243
26.808252 -47.914211 -2.3060462
26.924109 -48.504177 -2.2993402
26.88707 -48.812393 -2.2946055
27.126448 -49.629936 -2.2862813
24.937424 -46.175381 -2.3065691
22.312037 -42.76918 -2.3204966
24.920624 -48.412418 -2.2749968
24.747248 -48.452923 -2.2721608
24.602215 -48.551311 -2.2688689
24.576008 -48.897091 -2.2636309
24.429453 -48.994999 -2.2603066
24.211922 -48.943356 -2.2581546
23.91744 -49.52808 -2.2458897
23.425713 -50.146847 -2.2303674
23.264462 -50.218578 -2.2271323
20.769989 -44.979885 -2.2683904
18.622208 -41.170036 -2.293771
18.493093 -41.235935 -2.2910187
18.425762 -44.610809 -2.2407815
18.30545 -44.727455 -2.2373302
18.340666 -45.249809 -2.2301493
18.315208 -47.44883 -2.1972673
18.403572 -48.65601 -2.1806498
57.799046 -21.456587 -2.5935392
55.57634 -20.772346 -2.6526504
55.361221 -20.792881 -2.7986732
52.0438 -21.472162 -2.9205687
51.810131 -21.566477 -2.9112434
51.465897 -21.613134 -2.8957016
51.241421 -21.708485 -2.8868947
50.961754 -21.779093 -2.8749793
50.650059 -21.834324 -2.8612506
49.843971 -21.672775 -2.8195467
49.643024 -21.771099 -2.8120348
49.492188 -21.890594 -2.8073723
48.574978 -21.667622 -2.7591925
48.613815 -22.236618 -2.7731802
48.725086 -22.472885 -2.7835414
48.749329 -22.670065 -2.7889812
47.460693 -22.617258 -2.7273319
47.389404 -22.766247 -2.7273319
50.992214 -24.892601 -2.9436224
51.379707 -25.28195 -2.9705615
51.496853 -25.540859 -2.9819586
51.161777 -25.575253 -2.9671941
51.206039 -25.798763 -2.9744468
50.857605 -25.82386 -2.958905
51.425209 -26.315609 -2.9967234
51.479862 -26.547983 -3.0047536
51.382912 -26.702675 -3.0039766
50.741413 -26.572092 -2.9713385
50.710674 -26.759333 -2.9744468
51.230366 -27.23967 -3.0099342
49.850521 -26.707212 -2.933779
51.005478 -27.532557 -3.0068257
50.052017 -27.42539 -2.9607182
50.590729 -27.92758 -2.9977596
50.437283 -28.049976 -2.9938741
50.253078 -28.1546 -2.9881756
49.607769 -27.998188 -2.9550195
49.714901 -28.264954 -2.966676
50.020828 -28.635607 -2.9899888
49.783546 -28.7078 -2.9811816
49.084309 -28.510439 -2.9446585
48.779007 -28.538424 -2.9317069
50.297157 -29.650944 -3.0288434
49.483734 -30.430693 -3.0135605
49.264782 -30.509758 -3.0060487
49.1814 -30.672304 -3.0068257
49.063656 -30.813383 -3.0055306
44.497452 -28.140991 -2.7312171
44.425671 -28.291376 -2.7322533
47.560516 -30.498154 -2.9309297
47.757275 -31.049503 -2.9550195
47.484035 -31.084517 -2.9441402
46.929989 -31.144802 -2.9218636
46.807003 -31.275438 -2.9203095
46.90324 -31.553329 -2.9324839
46.799744 -31.697725 -2.932225
46.662804 -31.819277 -2.9298937
44.800716 -30.756151 -2.8190286
43.639984 -30.161449 -2.7519398
44.598389 -31.031332 -2.8185105
44.283924 -31.019457 -2.8047819
44.104641 -31.100872 -2.7996013
44.018932 -31.247953 -2.8003786
46.577473 -33.284752 -2.9697843
44.118496 -32.372704 -2.8387148
43.783619 -32.339085 -2.8236911
43.527168 -32.349709 -2.8133299
43.222591 -32.772076 -2.813848
44.395821 -34.115379 -2.9045086
43.990231 -34.01178 -2.8845634
44.210236 -34.404339 -2.9060628
44.270969 -34.675457 -2.917201
42.96973 -33.874607 -2.8384559
40.705635 -32.286026 -2.6952119
44.802937 -35.765717 -2.9739289
44.670891 -35.890652 -2.9726336
41.475052 -33.537918 -2.7669635
42.248615 -34.383518 -2.8257635
42.318077 -34.661625 -2.8376787
43.630718 -35.966385 -2.9332612
41.634464 -34.541058 -2.8063362
41.575577 -34.713287 -2.8097036
41.118435 -34.551411 -2.7861319
43.072372 -36.424755 -2.9262674
42.93491 -36.540474 -2.9247131
42.216576 -36.388966 -2.8912981
40.702671 -35.307526 -2.7951977
40.550171 -35.399101 -2.7923484
41.864246 -36.778637 -2.8907802
41.688641 -36.857059 -2.8866355
41.886005 -37.266651 -2.9083941
41.913807 -37.527954 -2.9184964
41.628773 -37.509037 -2.9068401
41.185211 -37.344467 -2.8840454
40.975475 -37.38953 -2.8775694
40.743797 -37.413376 -2.8695395
40.387684 -37.320923 -2.8527026
41.659752 -38.739738 -2.9511342
41.530548 -38.863598 -2.9506161
40.844799 -38.463284 -2.9104664
40.205475 -38.100258 -2.873425
40.78994 -39.129818 -2.932225
40.436893 -39.035816 -2.915647
40.084839 -38.939987 -2.8990691
40.2551 -39.351944 -2.9203095
40.362648 -39.705826 -2.9371467
40.08157 -39.677868 -2.9257491
36.837261 -36.7089 -2.6978023
39.905605 -40.017197 -2.9317069
37.828026 -38.413528 -2.7967522
38.013958 -39.076965 -2.8280947
38.05759 -39.368515 -2.840528
37.809189 -39.35825 -2.831203
37.826698 -39.638744 -2.8423414
34.89856 -37.020508 -2.6392615
34.71381 -37.057076 -2.6340809
37.121674 -39.877834 -2.8262815
37.18948 -40.20319 -2.8410463
34.134277 -37.368702 -2.6255329
33.848911 -37.29089 -2.6125815
33.654667 -37.311768 -2.6066236
37.623219 -41.975952 -2.9241951
34.027317 -38.204853 -2.6540263
33.847561 -38.244255 -2.6493638
37.054462 -42.133698 -2.9107254
33.715027 -38.580246 -2.6579118
33.652592 -38.753838 -2.6625743
33.517628 -38.844246 -2.6615381
36.44408 -42.50502 -2.9045086
36.177601 -42.46347 -2.8938885
36.06015 -42.595966 -2.8951836
35.877937 -42.651726 -2.8912981
35.538822 -42.519032 -2.8747201
35.140282 -42.311642 -2.8532205
35.000828 -42.414127 -2.8527026
34.85791 -42.512295 -2.8519256
34.626408 -42.501591 -2.8438957
31.66519 -39.117207 -2.6107683
31.589079 -39.274857 -2.6146536
31.689983 -39.654751 -2.6333036
31.611822 -39.812771 -2.6371891
31.529886 -39.96677 -2.6408157
33.776043 -43.091671 -2.8402691
34.215744 -43.920425 -2.8881898
30.957129 -39.996105 -2.6237197
34.368294 -44.692654 -2.9247131
33.763916 -44.193329 -2.8850813
33.688309 -44.382706 -2.890521
31.792957 -42.160053 -2.7392473
31.66634 -42.267715 -2.7397652
29.351068 -39.434906 -2.5501549
29.179539 -39.462685 -2.5460105
28.99925 -39.477699 -2.5410891
28.849606 -39.519203 -2.5382395
30.757679 -42.693676 -2.7296631
31.764734 -44.680813 -2.8438957
29.878672 -42.30867 -2.686923
29.259436 -41.724781 -2.6436651
29.122503 -41.8083 -2.643147
29.243879 -42.265034 -2.6662006
29.153376 -42.418423 -2.6700859
30.714178 -44.974697 -2.8252454
28.907728 -42.616383 -2.6713812
30.609552 -45.43182 -2.8418233
30.430573 -45.473808 -2.8384559
27.324587 -41.111244 -2.5607753
27.09627 -41.04686 -2.5514503
26.95075 -41.106731 -2.549896
29.286839 -45.287891 -2.7977881
29.333302 -45.673779 -2.8159204
29.024374 -45.823433 -2.813848
29.364138 -46.683643 -2.8609915
27.389429 -43.849274 -2.6820016
27.235743 -43.909645 -2.6804473
27.356907 -44.415897 -2.7060914
27.180763 -44.441982 -2.7024648
26.952885 -44.382046 -2.6936579
28.718801 -47.626492 -2.8850813
28.343321 -47.339478 -2.8622868
27.724974 -46.638531 -2.814625
27.203838 -46.759644 -2.8063362
27.104254 -46.927032 -2.8112578
26.924408 -46.955635 -2.8078902
27.295496 -47.951286 -2.8622868
27.115238 -47.984631 -2.8591783
26.920387 -47.991192 -2.8545158
24.952463 -44.812325 -2.6607611
26.870764 -48.596088 -2.8806779
26.946201 -49.096107 -2.9052858
26.901707 -49.382221 -2.917201
25.050735 -46.330368 -2.7322533
24.938114 -46.470436 -2.7358799
24.869463 -46.693985 -2.7444279
24.928614 -47.887409 -2.8006375
25.089714 -48.568832 -2.8358655
24.864122 -48.505222 -2.8275766
24.39468 -47.960007 -2.7913122
24.268641 -48.085442 -2.7941616
22.609488 -45.526558 -2.6369302
23.962633 -48.634201 -2.8125527
23.816303 -48.722706 -2.8133299
23.928926 -49.345413 -2.8449316
23.76725 -49.384701 -2.8431184
23.236372 -49.068233 -2.8164382
23.177639 -49.344372 -2.8280947
22.299227 -47.86446 -2.7392473
20.858566 -45.142078 -2.5796845
22.857168 -49.878376 -2.8462269
22.483433 -49.472622 -2.8190286
22.54948 -50.03466 -2.8470039
22.510344 -50.369663 -2.8620276
22.352695 -50.417976 -2.8609915
22.063583 -50.190823 -2.8441546
22.079365 -50.658127 -2.8666902
21.85673 -50.580563 -2.8584013
21.546314 -50.295559 -2.8384559
21.458469 -50.528458 -2.8477809
21.291872 -50.577213 -2.8467448
21.084799 -50.528648 -2.8402691
18.607214 -44.988396 -2.5255473
18.363512 -44.797142 -2.5115595
18.38056 -45.243198 -2.533318
18.281223 -45.407257 -2.5392756
20.325541 -50.946358 -2.8454497
20.247986 -51.218925 -2.857106
20.174395 -51.505451 -2.8695395
18.428183 -47.486099 -2.6423697
18.348057 -48.174908 -2.6742306
18.214243 -48.27903 -2.6768208
17.968094 -48.083435 -2.6628332
17.945679 -48.932999 -2.7037601
17.739027 -48.843639 -2.6957302
18.420238 -51.220272 -2.8236911
18.286039 -51.353153 -2.8278358
17.734385 -51.329708 -2.8172154
17.574656 -51.389896 -2.8174744
17.405123 -51.421207 -2.8161793
17.192734 -51.32412 -2.8078902
17.087971 -51.548508 -2.8172154
16.785875 -51.174931 -2.7939026
16.628109 -51.236908 -2.7944207
15.252026 -47.504509 -2.5882325
14.12781 -44.482616 -2.4211578
13.985003 -44.51725 -2.4206398
13.99027 -45.028275 -2.4460249
13.77981 -44.847672 -2.4338503
14.001736 -46.085152 -2.4986079
13.808046 -45.966316 -2.4898009
13.836994 -46.593441 -2.5214026
13.767648 -46.869041 -2.534095
13.773488 -47.439545 -2.5625885
13.784128 -48.039337 -2.5926359
13.890578 -48.990341 -2.6415927
13.915157 -49.704506 -2.677598
14.117105 -51.674313 -2.7788789
13.931286 -51.631634 -2.7742164
13.776722 -51.704094 -2.7757704
12.067359 -47.654758 -2.5501549
11.899433 -47.619766 -2.5462694
11.553741 -46.861828 -2.5037885
11.76402 -48.368 -2.5822747
11.649282 -48.560097 -2.5905638
11.509316 -48.649906 -2.5934131
11.354152 -48.676098 -2.592895
11.146348 -48.47308 -2.5802026
10.978557 -48.439682 -2.5765762
10.792582 -48.322861 -2.5685461
10.650379 -48.400421 -2.5708776
10.416821 -48.05788 -2.5509319
10.250159 -48.01712 -2.5470464
10.36527 -49.314693 -2.6141355
10.202202 -49.307896 -2.6120632
10.47767 -51.453423 -2.7239645
10.328723 -51.549736 -2.7273319
9.6810341 -49.11771 -2.5970395
9.5942192 -49.450138 -2.6130993
9.5043182 -49.823372 -2.6312315
9.0352173 -49.915649 -2.6314905
8.3496857 -47.841534 -2.5193303
8.1866989 -47.793709 -2.515445
8.5570536 -50.916527 -2.678375
8.2990999 -51.353779 -2.6985795
7.5284543 -47.532784 -2.4965358
7.2542901 -46.751923 -2.4543138
5.4273038 -47.7831 -2.4947224
5.3971577 -48.886841 -2.5514503
