# .PCD v0.7 - Point Cloud Data file format
VERSION 0.7
FIELDS x y z
SIZE 4 4 4
TYPE F F F
COUNT 1 1 1
WIDTH 510
HEIGHT 1
VIEWPOINT 0 0 0 1 0 0 0
POINTS 510
DATA ascii
-39.737667 -27.523636 4.3545399
-39.728706 -27.337566 4.3405113
-39.74807 -27.170584 4.3316183
-39.713634 -26.801586 4.3019485
-39.739311 -26.640522 4.2945175
-39.722279 -26.462914 4.2803478
-39.722141 -25.927254 4.2449026
-39.723434 -25.754135 4.2337761
-39.724041 -25.581257 4.2226458
-39.726013 -25.06658 4.18997
-39.711105 -24.887123 4.1766119
-39.721092 -24.722979 4.167676
-39.725502 -24.209806 4.1365376
-39.711391 -24.034224 4.1238956
-39.713806 -23.868675 4.1142035
-39.713348 -23.380331 4.0849895
-39.721912 -23.220385 4.0767632
-39.716835 -23.05352 4.0663147
-39.700382 -22.718204 4.0446663
-39.684624 -22.547464 4.0327234
-39.698811 -22.393187 4.0259638
-39.690514 -22.227564 4.0154953
-40.137894 -22.137264 4.0731611
-40.304523 -22.061043 4.0923815
-40.369656 -21.932503 4.0945463
-40.403473 -21.788189 4.0915174
-42.063648 -22.12344 4.3439913
-42.360016 -22.102137 4.384901
-43.087307 -22.118776 4.4891186
-43.389164 -22.094202 4.5308647
-44.136936 -22.10713 4.6382656
-39.737263 -27.485079 2.6702464
-39.765331 -27.323141 2.6650383
-39.847076 -27.196268 2.6671684
-39.840542 -27.012907 2.6574428
-39.837177 -26.84223 2.6487229
-39.833393 -26.662088 2.6395528
-39.83289 -26.494555 2.6313903
-39.832066 -26.307892 2.6223304
-39.821888 -26.125957 2.6125815
-39.832134 -25.957321 2.6056583
-39.828995 -25.781113 2.5970328
-39.82515 -25.605173 2.5884035
-39.80357 -25.41926 2.5775025
-39.6959 -25.182812 2.5552552
-39.698269 -25.013115 2.5477402
-39.712818 -24.851196 2.5419252
-39.821121 -24.744545 2.5485966
-39.830307 -24.580132 2.5422137
-39.834297 -24.403879 2.5348108
-39.842175 -24.23984 2.5284216
-39.836464 -24.068628 2.5203249
-39.83873 -23.902559 2.5133607
-39.83168 -23.731848 2.5052555
-39.828308 -23.56382 2.4977152
-39.842163 -23.415068 2.4928992
-39.828831 -23.242693 2.4842126
-39.827911 -23.077728 2.4772313
-39.83073 -22.915346 2.4708159
-39.797882 -22.734415 2.4598343
-39.685318 -22.512007 2.4385746
-39.699215 -22.357634 2.4338543
-40.444164 -22.258932 2.5111401
-40.788704 -22.272272 2.5493371
-41.067257 -22.249977 2.5789864
-41.386017 -22.24622 2.6138132
-41.709602 -22.242878 2.6492436
-42.029129 -22.235508 2.6841309
-42.362389 -22.23291 2.7207682
-42.718376 -22.239294 2.7603037
-42.931713 -22.174492 2.781523
-43.167458 -22.119293 2.8056285
-43.744183 -22.224934 2.8733776
-44.106373 -22.225443 2.9136231
-44.446487 -22.213356 2.9510314
-45.348888 -22.285147 3.054117
-45.825935 -22.328438 3.1088898
-45.955276 -22.211224 3.1194055
-46.020912 -22.064934 3.1218722
-47.277657 -22.269096 3.2696912
-47.712006 -22.279936 3.3189132
-48.096771 -22.266508 3.3618352
-48.574055 -22.300667 3.416764
-49.055641 -22.323509 3.4718835
-49.066704 -22.144264 3.4675882
-49.521408 -22.151424 3.5193131
-50.740067 -22.284521 3.6616256
-51.228905 -22.295883 3.7175496
-51.46508 -22.201946 3.7417042
-51.784161 -22.139994 3.7762983
-51.932583 -22.008406 3.7894995
-39.695084 -27.418779 0.95237303
-39.802322 -27.308386 0.95683384
-39.850574 -27.159821 0.95585155
-39.835278 -26.970942 0.94902802
-39.839989 -26.8055 0.94441867
-39.827427 -26.619911 0.93797493
-39.826595 -26.45229 0.9329679
-39.825409 -26.265526 0.9274137
-39.831814 -26.093954 0.92290807
-39.829041 -25.917376 0.91761804
-39.829819 -25.743662 0.91271377
-39.821373 -25.565023 0.90702438
-39.78656 -25.371296 0.89898038
-39.686695 -25.139755 0.88505316
-39.684452 -24.967449 0.88012624
-39.728802 -24.823166 0.87950945
-39.854465 -24.726549 0.88634896
-39.867752 -24.564445 0.88299036
-39.893112 -24.400393 0.88053346
-39.879177 -24.223734 0.87481189
-39.873203 -24.052307 0.86987162
-39.853519 -23.873823 0.86374664
-39.846169 -23.702972 0.85879707
-39.83379 -23.52998 0.85344911
-39.843063 -23.378744 0.85034299
-39.829388 -23.206268 0.84498715
-39.845707 -23.050714 0.84238887
-39.843891 -22.885836 0.83820939
-39.837036 -22.71884 0.8336308
-39.675377 -22.47044 0.81520963
-39.693443 -22.318357 0.81298852
-39.693283 -22.157154 0.80918288
-40.586662 -22.295443 0.88161683
-40.865852 -22.274668 0.90283179
-41.247608 -22.304092 0.93319845
-41.509674 -22.270956 0.95288253
-41.803177 -22.251936 0.97537208
-42.253365 -22.308542 1.0118017
-42.668522 -22.344978 1.045094
-42.810894 -22.246061 1.0541503
-42.935116 -22.137798 1.0616255
-43.229935 -22.110706 1.0842519
-43.570026 -22.103352 1.110893
-43.92403 -22.100428 1.1387637
-44.287479 -22.099703 1.1674669
-44.651352 -22.096903 1.1962051
-45.01112 -22.089939 1.2245796
-45.384888 -22.087118 1.2541883
-45.768169 -22.086256 1.2846334
-46.156433 -22.085234 1.3155158
-46.60891 -22.110294 1.3520448
-47.235317 -22.209072 1.4038513
-47.657276 -22.21435 1.4376719
-48.06144 -22.209261 1.4699285
-48.462372 -22.210407 1.5020802
-48.931595 -22.22805 1.5400398
-49.061626 -22.099543 1.5482948
-49.743057 -22.201252 1.6048348
-50.181606 -22.197712 1.6401093
-50.620621 -22.191612 1.6754272
-51.106255 -22.201765 1.7148197
-51.56934 -22.199743 1.7522433
-52.03754 -22.196865 1.7901156
-52.121693 -22.038816 1.7945235
-39.645157 -27.5278 -0.7598803
-39.723541 -27.398573 -0.75796914
-39.776344 -27.252831 -0.75732684
-39.89167 -27.147524 -0.75349665
-39.897243 -26.971884 -0.7551868
-39.884975 -26.795509 -0.7576375
-39.889145 -26.620361 -0.75933528
-39.879734 -26.447205 -0.76158166
-39.878407 -26.260204 -0.76359582
-39.867691 -26.077934 -0.76594615
-39.873272 -25.906414 -0.76744652
-39.878178 -25.7351 -0.76894975
-39.861019 -25.551092 -0.77152896
-39.791687 -25.336628 -0.77668858
-39.704239 -25.112627 -0.7827189
-39.693199 -24.935141 -0.78489113
-39.720222 -24.78071 -0.7851305
-39.854603 -24.689169 -0.77998281
-39.884758 -24.527464 -0.78009963
-39.866905 -24.34803 -0.78249574
-39.865692 -24.178827 -0.78403306
-39.872513 -24.014774 -0.78514075
-39.865635 -23.843575 -0.78690171
-39.858078 -23.672646 -0.78866696
-39.854225 -23.504398 -0.79021931
-39.841465 -23.341059 -0.79211187
-39.849476 -23.180492 -0.79301953
-39.852489 -23.017723 -0.79414773
-39.850471 -22.852789 -0.79549718
-40.802509 -22.205442 -0.75649452
-41.763702 -22.194696 -0.71222019
-42.08934 -22.189709 -0.69718051
-42.410881 -22.180687 -0.68233037
-42.777718 -22.19166 -0.6652379
-39.660614 -27.680639 -2.4439862
-39.668461 -27.50478 -2.442529
-39.67141 -27.32641 -2.4411123
-39.791241 -27.224241 -2.4386499
-39.79298 -27.045988 -2.4372349
-39.798225 -26.870665 -2.4357858
-39.789856 -26.697271 -2.4345348
-39.793709 -26.522427 -2.4330933
-39.792461 -26.35486 -2.4317737
-39.782318 -26.162893 -2.4303763
-39.79681 -25.996653 -2.4288297
-39.793602 -25.820148 -2.4274423
-39.785404 -25.64131 -2.4260988
-39.789333 -25.470514 -2.4246409
-39.668163 -25.225492 -2.4243445
-39.644714 -25.040201 -2.4231412
-39.646347 -24.870529 -2.4217017
-39.746544 -24.759195 -2.4193316
-39.785927 -24.612288 -2.4175265
-39.785545 -24.433323 -2.4160132
-39.810757 -24.279066 -2.4143333
-39.444794 -27.969843 -2.508451
-39.467155 -27.799778 -2.5043066
-39.521568 -27.652748 -2.5022345
-39.591846 -27.51705 -2.5011983
-39.632896 -27.361326 -2.498349
-39.640411 -27.183033 -2.4934273
-39.643085 -27.002134 -2.4882467
-39.649132 -26.824305 -2.483325
-39.654469 -26.646696 -2.4784036
-39.663227 -26.47209 -2.4737411
-39.654629 -26.286665 -2.4680424
-39.661953 -26.11252 -2.4633799
-39.659855 -25.942799 -2.4584582
-39.665791 -25.769108 -2.4537957
-39.582916 -25.53879 -2.4436934
-39.528412 -25.328112 -2.4354045
-39.510906 -25.142139 -2.4294469
-39.589691 -25.017897 -2.4294469
-39.655403 -24.885431 -2.4286697
-39.661343 -24.715841 -2.4242661
-39.653881 -24.538559 -2.4190855
-39.658447 -24.369429 -2.4146821
-39.662346 -24.2005 -2.4102786
-39.671272 -23.526993 -2.3926644
-39.65033 -23.346508 -2.386966
-39.572601 -23.133625 -2.3778996
-39.645077 -23.009197 -2.3778996
-39.530178 -22.447142 -2.3582134
-39.622253 -22.3351 -2.3595085
-39.796803 -22.269032 -2.3657253
-48.877445 -22.512119 -2.7915714
-48.947926 -22.358465 -2.7915714
-49.663795 -22.497149 -2.8283536
-50.271698 -22.582449 -2.8589191
-50.707294 -22.586943 -2.8796418
-51.07946 -22.560688 -2.8967376
-51.717255 -22.648481 -2.9288576
-51.829372 -22.503792 -2.9311888
-51.899815 -22.340851 -2.9311888
-52.139671 -22.250206 -2.940773
-39.61409 -27.882578 -0.82958943
-39.619541 -27.700705 -0.8278771
-39.611931 -27.510509 -0.82590806
-39.718739 -27.40012 -0.82633609
-39.738632 -27.23 -0.82496631
-39.7248 -27.0375 -0.82291156
-39.734989 -26.862177 -0.82137054
-39.736179 -26.681475 -0.81965828
-39.732464 -26.498257 -0.81786042
-39.740494 -26.323608 -0.81631941
-39.743641 -26.146423 -0.81469274
-39.733162 -25.970953 -0.81289488
-39.734886 -25.794279 -0.81126821
-39.731693 -25.615141 -0.80955595
-39.62672 -25.371582 -0.80578899
-39.604984 -25.182587 -0.8037343
-39.607811 -25.010004 -0.80219322
-39.711597 -24.901381 -0.8027069
-39.738705 -24.744799 -0.80167961
-39.748219 -24.577755 -0.80030978
-39.740025 -24.400452 -0.79859751
-39.743923 -24.231243 -0.79714209
-39.738598 -24.05707 -0.79551548
-39.749706 -23.893473 -0.79423124
-39.743011 -23.719795 -0.79260457
-39.739914 -23.548958 -0.79106361
-39.744759 -23.38343 -0.78969377
-39.748955 -23.218107 -0.78832394
-39.748184 -23.050482 -0.78686851
-39.694759 -22.853157 -0.78438574
-39.623123 -22.646484 -0.78156054
-39.620155 -22.47995 -0.78010511
-39.625248 -22.318567 -0.77882093
-39.773712 -22.237885 -0.78036201
-39.935173 -22.163765 -0.78215986
-40.372421 -22.240831 -0.78935128
-40.657024 -22.231409 -0.79354632
-40.990299 -22.246653 -0.79868317
-41.288857 -22.241051 -0.80313498
-41.596592 -22.238516 -0.80775809
-41.909142 -22.236599 -0.81246686
-42.222084 -22.232935 -0.81717551
-42.526554 -22.222893 -0.82171297
-42.875759 -22.234171 -0.82710665
-43.207661 -22.234333 -0.83215779
-43.544441 -22.23489 -0.83729452
-43.877193 -22.231291 -0.84234571
-44.228214 -22.2348 -0.84773934
-44.58416 -22.238554 -0.85321856
-44.918159 -22.229214 -0.85826975
-45.270489 -22.226795 -0.86366332
-45.618752 -22.220192 -0.86897135
-45.98542 -22.220316 -0.87462181
-46.357044 -22.220516 -0.88035786
-46.71106 -22.210026 -0.88575149
-47.124249 -22.225241 -0.89225811
-47.515347 -22.227484 -0.89833659
-47.875179 -22.212759 -0.90381587
-48.285336 -22.21899 -0.91023684
-48.705097 -22.227003 -0.91682899
-49.093513 -22.218155 -0.92282194
-49.532509 -22.229624 -0.92975652
-49.949226 -22.228378 -0.93626314
-50.361839 -22.222725 -0.94268411
-50.788654 -22.220697 -0.94936192
-51.23888 -22.226152 -0.95646781
-51.675861 -22.223072 -0.9633168
-52.12252 -22.221384 -0.97033709
-52.251938 -22.082838 -0.97145009
-39.619583 -27.82445 4.2483592
-39.633263 -27.648556 4.2404919
-39.711742 -27.518232 4.2396178
-39.798 -27.393337 4.2396178
-39.785179 -27.200703 4.2291279
-39.775665 -27.011219 4.2190752
-39.810768 -26.852711 4.2138305
-39.795628 -26.660963 4.2033405
-39.833572 -26.505466 4.1985331
-39.833538 -26.32527 4.1897917
-39.841095 -26.150801 4.1819243
-39.801685 -25.956299 4.1696863
-39.816151 -25.787796 4.162693
-39.658184 -25.509003 4.1377797
-39.620598 -25.309208 4.1255417
-39.598969 -25.120584 4.1150517
-39.631336 -24.96685 4.1102443
-39.781364 -24.887117 4.1176744
-39.800117 -24.725229 4.1115551
-39.801292 -24.552998 4.1036878
-39.801777 -24.381014 4.0958204
-39.814342 -24.217024 4.0892644
-39.843327 -24.063498 4.0844564
-39.811939 -23.874165 4.0735297
-39.826832 -23.713299 4.0674105
-39.836811 -23.550049 4.0608544
-39.80751 -23.364262 4.050365
-39.798943 -23.191446 4.0420604
-39.785381 -23.016415 4.033319
-39.628578 -22.759838 4.0101542
-39.634975 -22.59823 4.0035977
-39.724072 -22.319469 3.998353
-39.937546 -22.274624 4.0127764
-40.094479 -22.197294 4.0215178
-40.312435 -22.152782 4.0363784
-40.740395 -22.2216 4.0722184
-41.007107 -22.200216 4.0918865
-41.515408 -22.307032 4.1355939
-41.743496 -22.260881 4.1513286
-41.962914 -22.208836 4.1661897
-42.473434 -22.308512 4.209897
-42.680233 -22.246334 4.2234459
-42.895908 -22.187654 4.2378697
-43.439537 -22.296154 4.2846365
-43.673595 -22.243202 4.3008084
-44.458099 -22.292082 4.3641839
-44.657238 -22.216639 4.3768592
-45.462475 -22.261992 4.4419832
-45.644188 -22.173477 4.4529099
-46.252064 -22.28945 4.5053587
-46.488132 -22.223518 4.5215306
-47.329971 -22.261696 4.5897141
-47.449322 -22.136068 4.594522
-48.133408 -22.271349 4.653964
-48.357052 -22.190664 4.6688247
-48.975082 -22.288265 4.7217107
-49.212833 -22.210114 4.7378821
-39.630116 -28.007797 2.5477548
-39.578968 -27.785612 2.538842
-39.629196 -27.635437 2.5364826
-39.687096 -27.490887 2.5346477
-39.653969 -27.284002 2.5270457
-39.739491 -27.159288 2.5270457
-39.746124 -26.981024 2.5220649
-39.731331 -26.78904 2.5157735
-39.736473 -26.611286 2.510793
-39.745041 -26.436552 2.5060742
-39.727913 -26.245502 2.499783
-39.735027 -26.071259 2.4950645
-39.724361 -25.895992 2.4895594
-39.725891 -25.719498 2.4845786
-39.726692 -25.543266 2.479598
-39.617367 -25.297409 2.4678016
-39.612305 -25.11935 2.4625587
-39.619198 -24.949547 2.4581022
-39.735493 -24.848774 2.4604616
-39.745487 -24.681679 2.4562674
-39.742081 -24.506895 2.4512866
-39.75074 -24.340212 2.4470925
-39.750221 -24.168507 2.4423738
-39.744732 -23.994484 2.4373932
-39.751396 -23.828428 2.4331989
-39.740246 -23.652351 2.4279561
-39.741276 -23.484213 2.4234996
-39.74165 -23.31628 2.4190433
-39.745667 -23.15111 2.4148488
-39.74472 -22.983637 2.4103925
-39.673832 -22.776623 2.4017417
-39.602036 -22.570292 2.3930912
-39.839161 -22.210636 2.394664
-40.240768 -22.26911 2.414587
-40.691273 -22.351719 2.4373932
-40.958569 -22.331329 2.4491897
-41.274433 -22.335629 2.4638696
-41.581936 -22.333429 2.4780252
-41.89423 -22.331873 2.4924428
-42.215763 -22.333227 2.507385
-42.524437 -22.325832 2.5215406
-42.833488 -22.316711 2.5356963
-42.93 -22.195793 2.5372691
-43.497086 -22.316088 2.5666289
-43.842861 -22.319775 2.5828819
-44.171257 -22.312511 2.5980861
-44.544678 -22.325766 2.6159117
-44.887318 -22.321331 2.6319025
-45.243801 -22.321589 2.6486795
-45.64109 -22.339581 2.6678157
-45.773922 -22.226627 2.6714857
-46.068447 -22.191057 2.6845927
-46.723614 -22.326073 2.7186713
-47.095825 -22.322458 2.7362347
-47.477512 -22.320974 2.7543225
-47.841541 -22.30888 2.7713618
-48.273941 -22.326145 2.7923329
-48.679691 -22.328423 2.8117313
-48.976849 -22.278749 2.8248384
-49.137623 -22.165848 2.8300815
-49.85424 -22.300882 2.8673055
-50.312016 -22.316233 2.8895874
-50.756668 -22.322893 2.911083
-51.178974 -22.317001 2.9312682
-51.670475 -22.338408 2.9553852
-52.006584 -22.290052 2.9705894
-39.605583 -27.980097 0.87284797
-39.595081 -27.78661 0.87068826
-39.641163 -27.633501 0.86978847
-39.694908 -27.48605 0.86906856
-39.64925 -27.270559 0.86618906
-39.734726 -27.145861 0.86618906
-39.73708 -26.964754 0.86438942
-39.734535 -26.781116 0.86249977
-39.731243 -26.597742 0.86061007
-39.731342 -26.417439 0.85881037
-39.726536 -26.234634 0.85692072
-39.720974 -26.052122 0.85503101
-39.722702 -25.885033 0.85341132
-39.728287 -25.71121 0.85179156
-39.686901 -25.507895 0.84918201
-39.602501 -25.278187 0.84567267
-39.593044 -25.097448 0.84378296
-39.659012 -24.964939 0.84351307
-39.76268 -24.856121 0.84405291
-39.785351 -24.696814 0.84288317
-39.77763 -24.519238 0.84108353
-39.803291 -24.362839 0.84000367
-39.777111 -24.175348 0.83784407
-39.771534 -24.001196 0.83613431
-39.778126 -23.835016 0.83469456
-39.775478 -23.663921 0.83307481
-39.772144 -23.49309 0.83145517
-39.77676 -23.327549 0.83001542
-39.772083 -23.157202 0.82839566
-39.753746 -22.979599 0.82650602
-39.608948 -22.730181 0.82200682
-39.601974 -22.561089 0.82038707
-39.59433 -22.392265 0.81876737
-39.917648 -22.245262 0.82254666
-40.525398 -22.417397 0.83361477
-40.832264 -22.419888 0.83847398
-41.143925 -22.423073 0.84342307
-41.4604 -22.42691 0.84846222
-41.803734 -22.443155 0.85404122
-42.112282 -22.438658 0.85890037
-42.447731 -22.446463 0.86429942
-42.765926 -22.443098 0.86933857
-42.938206 -22.361742 0.87140816
-43.008244 -22.226736 0.87140816
-43.745113 -22.433695 0.88490582
-44.020329 -22.400448 0.88904512
-44.353775 -22.394993 0.89435422
-44.705502 -22.396608 0.90002316
-45.048717 -22.391785 0.90551221
-45.45063 -22.413769 0.91217107
-45.7229 -22.369734 0.91622043
-45.833424 -22.245634 0.91703022
-46.209373 -22.249006 0.92314917
-46.838417 -22.37089 0.93430722
-47.229237 -22.375599 0.94069612
-47.597916 -22.367437 0.94663507
-47.998722 -22.371977 0.95320398
-48.386414 -22.367912 0.95950282
-48.83363 -22.388716 0.96697158
-48.990189 -22.2745 0.96868122
-49.679722 -22.399954 0.98091906
-50.124077 -22.411089 0.98829782
-50.541573 -22.407497 0.99513662
-50.982418 -22.41156 1.0024253
-51.396286 -22.401087 1.0091741
-51.916134 -22.433857 1.0179926
-52.032307 -22.290331 1.0188925
-52.217113 -22.175608 1.0211421
