# .PCD v0.7 - Point Cloud Data file format
VERSION 0.7
FIELDS x y z
SIZE 4 4 4
TYPE F F F
COUNT 1 1 1
WIDTH 283
HEIGHT 1
VIEWPOINT 0 0 0 1 0 0 0
POINTS 283
DATA ascii
-14.008283 68.587929 6.2380362
-13.826167 68.774422 6.2522306
-12.716603 68.76033 6.1998348
-12.500406 68.782616 6.1929302
-12.276837 68.765213 6.1809282
-12.059844 68.781204 6.1733875
-11.84288 68.796501 6.1658449
-11.622446 68.79158 6.1557579
-11.399588 68.771286 6.1437654
-40.238522 71.590263 5.4131823
-39.974945 71.645035 5.4004087
-38.964798 70.389091 5.2383041
-39.352367 71.582817 5.3556499
-39.052967 71.569344 5.3355017
-38.780659 71.602493 5.3207722
-38.318184 71.29071 5.2671967
-36.75206 71.564194 5.1907797
-36.498287 71.619698 5.179513
-36.219269 71.625732 5.1628609
-35.931408 71.613052 5.1442556
-35.647629 71.636574 5.1288366
-35.362858 71.626076 5.110734
-35.082966 71.623413 5.0936146
-34.799023 71.610748 5.0755253
-34.522118 71.61039 5.0589056
-33.695786 71.607475 5.0095692
-15.146679 71.540031 4.0786819
-14.915911 71.545494 4.0699739
-14.683167 71.540474 4.0603399
-14.45164 71.539558 4.0511732
-14.219253 71.533012 4.041544
-13.987056 71.525688 4.0319176
-13.754063 71.512718 4.0218306
-13.525189 71.518524 4.0135975
-13.297376 71.52845 4.0058279
-13.066818 71.522995 3.9966729
-12.838282 71.526558 3.9884431
-12.611684 71.539169 3.9811375
-12.381554 71.531456 3.971987
-12.152483 71.527908 3.9633
-11.92443 71.528511 3.9550745
-11.698202 71.538185 3.9477713
-11.470365 71.537308 3.9395487
-11.241014 71.525871 3.9304078
-11.012664 71.518616 3.9217288
-10.78526 71.515526 3.9135106
-10.558768 71.516624 3.9057534
-10.330865 71.507141 3.8970797
-29.68943 71.538857 2.0899284
-29.405121 71.519485 2.0772049
-27.597301 71.527092 2.0038955
-27.341206 71.527122 1.9936144
-25.572287 71.543968 1.9245131
-25.318409 71.536774 1.9142654
-25.073324 71.552147 1.9055417
-23.312864 71.489609 1.8351758
-23.071213 71.502808 1.8267796
-22.820543 71.52877 1.8187382
-22.576061 71.530823 1.8097432
-21.355423 71.523712 1.7645137
-21.109344 71.5112 1.7549393
-20.86795 71.512154 1.7462666
-20.622438 71.49794 1.7367013
-20.384331 71.506805 1.7286313
-20.143568 71.505287 1.7199676
-15.403713 71.478096 1.5573704
-15.17405 71.488998 1.5505202
-14.941271 71.484528 1.5427978
-14.712893 71.498802 1.5362399
-14.48146 71.497681 1.5288117
-14.249159 71.490929 1.521095
-14.016041 71.478508 1.5130913
-13.787126 71.484894 1.5062492
-13.556355 71.480736 1.4988286
-13.327676 71.485634 1.4919884
-11.961468 71.519035 1.4521163
-11.731832 71.508919 1.4447095
-11.503224 71.502968 1.4375908
-11.042443 71.464218 1.4219329
-10.595849 71.506287 1.4111345
-10.367949 71.496651 1.4040244
-23.660887 73.168137 -1.3168982
-23.418699 73.204018 -1.3162133
-23.232363 73.415451 -1.3186961
-20.847872 73.04187 -1.3008031
-20.629169 73.145493 -1.3014879
-20.385872 73.161781 -1.3006318
-32.192505 68.754822 6.6618819
-31.928659 68.784409 6.6544518
-31.668648 68.789368 6.6452732
-31.379993 68.729935 6.6299758
-31.083807 68.651215 6.6129298
-35.693996 71.528503 4.196888
-35.449146 71.600021 4.1945286
-35.158684 71.609619 4.1882372
-34.830826 71.508728 4.1759167
-34.603809 71.613304 4.1756544
-34.350166 71.630112 4.1706738
-34.082047 71.647507 4.165431
-33.795017 71.623268 4.1578288
-33.508671 71.630905 4.1517997
-33.237221 71.636192 4.1460328
-32.957714 71.62233 4.1392169
-32.701462 71.657372 4.1352849
-32.418552 71.632378 4.1279449
-32.154522 71.647308 4.1229639
-31.886625 71.652184 4.1174588
-31.619017 71.656082 4.1119542
-31.343725 71.640701 4.1054006
-31.118519 71.738808 4.1054006
-29.190985 71.601761 4.059526
-27.897806 71.628036 4.0356708
-27.640266 71.631485 4.030952
-27.377668 71.620018 4.0254474
-27.124254 71.630959 4.0212531
-26.862242 71.617653 4.015748
-26.596807 71.631432 4.0115538
-26.338875 71.625603 4.0065732
-26.088148 71.637604 4.0026412
-25.829063 71.625275 3.9973981
-25.577036 71.630836 3.9932041
-25.323597 71.630806 3.9887476
-25.068726 71.625183 3.9840291
-24.819113 71.632797 3.9800971
-24.564772 71.625404 3.9753783
-24.315538 71.63131 3.9714463
-24.063364 71.626877 3.96699
-23.809881 71.616829 3.9622712
-23.562941 71.62487 3.9586012
-23.308424 71.608337 3.9536204
-23.060368 71.609924 3.9496884
-22.818628 71.629684 3.9468048
-22.563486 71.605766 3.9415622
-22.319084 71.614334 3.9381542
-22.070473 71.607742 3.9339597
-20.575964 71.568359 3.9095807
-20.334663 71.575005 3.9064353
-20.090822 71.57122 3.9027648
-19.851179 71.581078 3.8998816
-19.606428 71.570839 3.8959494
-19.368425 71.583893 3.8933282
-19.122831 71.5672 3.8891337
-18.883905 71.573814 3.8862503
-18.64509 71.579643 3.8833666
-18.401485 71.565315 3.8794343
-18.161808 71.564705 3.8762887
-17.924776 71.572975 3.8736675
-17.684277 71.56591 3.8702595
-17.442781 71.553207 3.8665895
-17.20858 71.56881 3.8644924
-12.957005 71.510551 3.8154721
-12.722641 71.496834 3.8125885
-12.49454 71.516769 3.8115396
-12.262221 71.511375 3.8091805
-12.033339 71.524925 3.8078697
-11.802901 71.527893 3.806035
-11.570137 71.515335 3.8034134
-11.339166 71.511871 3.8013163
-11.11063 71.522469 3.8000054
-10.876099 71.492859 3.7965977
-10.646309 71.492096 3.7947626
-10.423078 71.53508 3.7952871
-10.18089 71.534637 3.7934518
-9.951993 71.536598 3.7918789
-9.7224789 71.532883 3.7900443
-9.4937754 71.533371 3.7884715
-9.2625656 71.513329 3.7858498
-49.440395 71.587746 1.5659972
-49.1078 71.586052 1.5625777
-48.786968 71.599503 1.5595183
-48.460899 71.603386 1.5562788
-48.126953 71.59346 1.5527695
-47.810207 71.607086 1.5498
-47.482765 71.602798 1.5464706
-47.166855 71.613831 1.5435011
-46.832153 71.594322 1.5399016
-46.501888 71.606689 1.5368422
-46.187328 71.613754 1.5338727
-45.852535 71.614967 1.5306333
-45.544182 71.627884 1.5278438
-45.232655 71.606331 1.5245144
-44.91185 71.595612 1.5212749
-44.604778 71.604805 1.5184855
-44.290169 71.600044 1.515426
-43.981297 71.602509 1.5125465
-43.67281 71.60376 1.5096669
-43.364788 71.603767 1.5067875
-43.023708 71.546852 1.5027382
-42.709007 71.531441 1.4995887
-42.448395 71.605049 1.4983289
-42.142071 71.600204 1.4954495
-41.831177 71.585472 1.4923899
-41.525867 71.607033 1.4899604
-41.218369 71.59417 1.4869909
-40.928726 71.610474 1.4846513
-39.741817 71.607697 1.4741231
-39.451511 71.613983 1.4716936
-39.151997 71.601585 1.468904
-38.857719 71.596809 1.4662945
-38.563862 71.590889 1.463685
-38.279819 71.601479 1.4614354
-37.974216 71.59996 1.4588258
-37.679253 71.586182 1.4561263
-35.983364 71.576073 1.4419988
-35.704784 71.58139 1.4398391
-35.424274 71.5812 1.4375895
-35.140438 71.604042 1.4356999
-34.858459 71.597198 1.4333602
-34.589855 71.616333 1.4315606
-34.321045 71.601433 1.429221
-34.050831 71.614098 1.4273313
-33.770252 71.603157 1.4249917
-33.481815 71.606056 1.4228321
-33.212505 71.615662 1.4209425
-32.943462 71.624275 1.4190528
-32.670582 71.622803 1.4169831
-32.402157 71.629425 1.4150934
-32.125828 71.616829 1.4128438
-31.855959 71.61692 1.4108642
-31.590443 71.625175 1.4090645
-31.319214 71.618713 1.4069949
-31.094076 71.716743 1.4069949
-29.436331 71.559586 1.3927773
-29.170549 71.587372 1.3914275
-28.909924 71.590599 1.3897179
-27.866596 71.584846 1.3826991
-27.607368 71.58342 1.3809894
-27.353811 71.595078 1.3795496
-27.098686 71.601166 1.3780199
-26.84376 71.606377 1.3764902
-26.571383 71.60125 1.3746904
-26.311798 71.590538 1.3728908
-26.057741 71.592964 1.371361
-25.803862 71.594536 1.3698313
-25.553589 71.60463 1.3684816
-25.298544 71.599701 1.3668618
-25.042099 71.589172 1.3651521
-24.790949 71.591896 1.3637124
-24.536715 71.584305 1.3620927
-24.285986 71.585297 1.3606529
-24.033937 71.580673 1.3591232
-23.786888 71.589401 1.3578634
-23.536861 71.587791 1.3564236
-23.284025 71.575813 1.354804
-23.036055 71.577232 1.3534542
-22.786823 71.573029 1.3520145
-22.539345 71.572731 1.3506646
-22.295036 71.581146 1.3494949
-22.043571 71.564827 1.3478751
-20.799543 71.54586 1.3411263
-20.559467 71.558006 1.3401365
-20.309998 71.535675 1.3385168
-20.068972 71.541359 1.3374369
-19.825405 71.536613 1.3361771
-19.586063 71.545502 1.3351873
-19.344217 71.543953 1.3340176
-19.106478 71.556068 1.3331177
-18.86248 71.543228 1.331768
-18.622494 71.544075 1.3306881
-18.378994 71.529594 1.3293384
-18.141876 71.538528 1.3284385
-17.903708 71.541824 1.3274488
-17.663298 71.534622 1.3262789
-17.426626 71.541191 1.325379
-17.187786 71.537254 1.3242993
-16.96294 71.590897 1.3242993
-12.946895 71.525909 1.308372
-12.715981 71.531784 1.3077422
-12.482614 71.522125 1.3068423
-12.252809 71.531425 1.3063024
-12.019719 71.520264 1.3054025
-11.786857 71.508347 1.3045027
-11.55814 71.520348 1.3040528
-11.325588 71.506927 1.3031529
-11.094769 71.502632 1.302433
-10.863302 71.492653 1.3016232
-10.628366 71.457199 1.3003634
-10.408123 71.51992 1.3009033
-10.164579 71.509499 1.3000935
-9.9357624 71.511368 1.2995536
-9.7056541 71.502602 1.2988337
-9.4783611 71.512917 1.2984738
-9.2484989 71.502678 1.2977539
