# .PCD v0.7 - Point Cloud Data file format
VERSION 0.7
FIELDS x y z
SIZE 4 4 4
TYPE F F F
COUNT 1 1 1
WIDTH 110
HEIGHT 1
VIEWPOINT 0 0 0 1 0 0 0
POINTS 110
DATA ascii
38.23373 -71.686073 0.17447662
37.946651 -71.680344 0.16718388
35.423676 -71.664459 0.10590577
35.142788 -71.65239 0.098983288
34.877575 -71.670731 0.093369007
34.572113 -71.635506 0.085271835
34.301075 -71.638245 0.079141378
34.013809 -71.636772 0.07255578
33.762611 -71.678123 0.068115234
33.49839 -71.658524 0.061587572
33.237019 -71.675407 0.056259394
32.969574 -71.677719 0.050397396
32.694187 -71.660858 0.043818235
32.417171 -71.638405 0.037074804
32.148746 -71.633163 0.031080723
31.892866 -71.654312 0.026201963
31.627071 -71.651711 0.020424366
31.337347 -71.625999 0.013470888
31.070337 -71.616768 0.0075461864
30.817444 -71.63871 0.0029153824
30.558882 -71.64595 -0.0022475719
30.296656 -71.643066 -0.0077588558
30.04248 -71.657661 -0.012524843
29.79615 -71.689819 -0.01654768
29.534704 -71.684158 -0.022011757
29.260403 -71.645149 -0.028732538
29.007248 -71.656067 -0.033435822
28.759798 -71.680046 -0.037579298
28.488607 -71.642738 -0.04406786
28.23979 -71.660271 -0.048362017
27.991135 -71.676933 -0.052641392
27.715788 -71.622757 -0.059623957
27.448105 -71.58625 -0.065865278
27.20038 -71.600159 -0.07009697
26.968555 -71.65535 -0.072685957
26.70369 -71.620728 -0.07869792
26.461683 -71.646126 -0.082343817
26.234737 -71.750328 -0.083166361
26.228386 -73.859688 -0.015882969
29.9231 -71.525536 -2.0108416
29.66674 -71.547935 -2.0068619
29.139837 -71.552872 -1.9992435
28.098448 -71.537346 -1.9843974
27.854147 -71.58152 -1.9801774
27.580173 -71.545219 -1.9766989
27.329191 -71.568886 -1.9726568
26.827608 -71.613663 -1.9645759
37.745113 -71.540359 -2.1161463
37.462215 -71.549973 -2.1123862
37.166111 -71.531761 -2.1088324
34.650734 -71.555206 -2.0755219
34.373623 -71.557846 -2.0717821
33.820381 -71.560036 -2.0643172
33.548378 -71.568695 -2.0605178
33.256111 -71.530807 -2.057097
32.168621 -71.542236 -2.0420449
31.08992 -71.547104 -2.0269876
30.832529 -71.57357 -2.0229936
30.55621 -71.552925 -2.0194056
29.77421 -71.558655 -2.0082378
29.517881 -71.580551 -2.0042579
28.188772 -71.545815 -1.9855887
27.930281 -71.552856 -1.9817141
27.67202 -71.55899 -1.9778428
27.415743 -71.568916 -1.9739312
26.893543 -71.557892 -1.9663823
38.159313 -71.706825 -1.391039
37.884819 -71.733521 -1.3892411
37.610542 -71.759201 -1.3874433
37.301868 -71.717339 -1.3843613
37.023647 -71.731995 -1.3823922
36.743404 -71.741165 -1.3803375
36.465755 -71.753738 -1.3783684
36.179382 -71.747414 -1.3760568
35.884457 -71.72213 -1.3734028
35.612282 -71.740463 -1.3716049
35.327091 -71.730904 -1.3692935
35.048889 -71.733734 -1.3672386
34.781925 -71.758011 -1.365612
34.495663 -71.740776 -1.3632149
34.207706 -71.717934 -1.3607321
33.941601 -71.739189 -1.3591055
33.660843 -71.727791 -1.3568795
33.397221 -71.71859 -1.3548248
33.131916 -71.736923 -1.3531982
32.852261 -71.722481 -1.3509723
32.58749 -71.738853 -1.3493456
32.310627 -71.726921 -1.3472053
32.04435 -71.736786 -1.3454931
31.768204 -71.722824 -1.3433527
31.498495 -71.721573 -1.3414692
31.229116 -71.719337 -1.3395858
30.962034 -71.720703 -1.3377877
30.695263 -71.721107 -1.33599
30.436604 -71.738937 -1.3345344
30.172314 -71.742035 -1.3328222
29.908306 -71.744186 -1.33111
29.633127 -71.717667 -1.3288841
29.364101 -71.703995 -1.3269149
29.102972 -71.707886 -1.3252884
28.836515 -71.696922 -1.3234049
28.58337 -71.717491 -1.3221207
28.315685 -71.699989 -1.3201516
28.059322 -71.70945 -1.3186961
27.797758 -71.704025 -1.3169839
27.540096 -71.706993 -1.3154428
27.27202 -71.681023 -1.3133882
27.036293 -71.700813 -1.3122752
26.775919 -71.691734 -1.310563
26.526276 -71.709854 -1.3093643
