# .PCD v0.7 - Point Cloud Data file format
VERSION 0.7
FIELDS x y z
SIZE 4 4 4
TYPE F F F
COUNT 1 1 1
WIDTH 257
HEIGHT 1
VIEWPOINT 0 0 0 1 0 0 0
POINTS 257
DATA ascii
-6.5586758 41.657505 7.0671463
-6.4313774 41.680111 7.0645323
-6.3088393 41.731102 7.0688152
-6.1773601 41.72892 7.0604467
-6.0482883 41.740715 7.0555248
-5.9192123 41.752102 7.0506048
-5.78864 41.753464 7.0433855
-5.658855 41.759216 7.0373163
-5.53124 41.778988 7.0346899
-26.963367 39.796837 7.2071209
-26.810741 39.839565 7.1935406
-23.990295 39.58984 6.7867393
-24.053055 40.229195 6.900588
-24.173807 40.697193 6.9934416
-24.019308 40.741993 6.9817305
-22.77038 41.805962 7.0099468
-22.611069 41.824139 6.994278
-22.456711 41.850235 6.9806318
-22.264137 41.807404 6.9508314
-22.100592 41.815132 6.9331522
-21.923048 41.79649 6.9094219
-21.748201 41.781429 6.8867035
-21.578333 41.774292 6.8660116
-21.385498 41.723373 6.8352375
-24.425718 45.622433 6.0631437
-24.134901 45.429752 6.0072813
-23.993301 45.503155 6.0036736
-23.932035 45.723045 6.0286913
-22.861849 46.091549 5.9779844
-22.318415 46.449394 5.9782782
-22.222282 46.613983 5.9930515
-21.236723 46.046291 5.8207674
-18.980757 45.589424 5.5554628
-18.898125 45.803539 5.5800247
-18.726557 45.792332 5.5638676
-18.582386 45.822479 5.5562048
-18.44771 45.896355 5.5558825
-18.303051 45.968582 5.5545645
-18.141348 45.977875 5.5425739
-17.974134 45.972923 5.5280876
-17.825762 46.013004 5.521925
-17.669922 46.034317 5.5124321
-16.912449 46.611351 5.5384827
-16.753792 46.62487 5.5281334
-16.58308 46.605522 5.5119791
-16.417843 46.599411 5.4983168
-16.257935 46.606586 5.4871445
-14.232596 46.319302 5.2944613
-14.110304 46.426888 5.3023081
-13.972506 46.487164 5.3018961
-13.832989 46.542313 5.3006544
-13.693273 46.597038 5.2994089
-13.537321 46.59951 5.2890949
-13.377175 46.587296 5.2763138
-13.218698 46.579239 5.2643604
-13.058985 46.56591 5.251585
-12.899495 46.552029 5.2388153
-12.756802 46.594402 5.2359142
-9.6098061 46.866508 5.0867758
-9.4629917 46.884083 5.0813894
-9.3078899 46.862591 5.0694818
-9.1652594 46.898506 5.0673561
-23.830019 44.51355 4.0395517
-23.657499 44.525261 4.0268393
-23.495752 45.875198 4.1616745
-23.329504 45.902687 4.1515579
-23.161051 45.925163 4.1407776
-22.990345 45.94265 4.1293306
-22.767164 45.858398 4.102602
-22.624325 45.927303 4.0991383
-22.407948 45.871861 4.0762568
-22.226934 45.864506 4.0615063
-22.075193 45.913986 4.0553856
-21.92782 45.971809 4.0505877
-21.756044 45.980331 4.0384941
-21.580078 45.979309 4.0250797
-21.413048 45.995445 4.0143166
-21.228813 45.975292 3.9982593
-21.057838 45.98122 3.9861777
-20.882748 45.977577 3.9727762
-20.710037 45.977741 3.9600394
-20.569128 46.044567 3.9572194
-19.503019 45.951965 3.8696587
-19.344116 45.974216 3.8609045
-19.175327 45.973202 3.8488562
-18.996948 45.970451 3.8359969
-18.830549 45.972729 3.8246133
-18.674078 45.975586 3.8140476
-18.504137 45.967571 3.8013542
-18.330477 45.971359 3.7898223
-18.161015 45.962067 3.777137
-17.997467 45.965885 3.7664249
-17.83219 45.964554 3.755059
-17.668962 45.967201 3.7443516
-17.505947 45.969265 3.7336476
-17.341221 45.966148 3.7222898
-17.182173 45.976269 3.7129009
-17.014194 45.962746 3.7002389
-16.853638 45.967106 3.6901991
-16.69327 45.970882 3.6801627
-16.529488 45.964844 3.6688197
-16.367659 45.962856 3.6581333
-16.211231 45.974216 3.6494105
-16.049747 45.971092 3.6387289
-15.890154 45.972046 3.6287034
-15.729008 45.967781 3.6180274
-15.569727 45.967621 3.6080067
-15.412289 45.971558 3.5986402
-15.246767 45.951569 3.5860178
-15.092931 45.963753 3.5779593
-14.935925 45.966042 3.5685999
-14.779062 45.967793 3.5592415
-14.622363 45.96899 3.5498855
-14.464237 45.964939 3.5398819
-14.307844 45.965046 3.5305307
-14.140677 45.957771 3.5197232
-13.98154 45.947334 3.5090783
-13.816596 45.917442 3.4958417
-13.648993 45.877502 3.481313
-13.483242 45.841686 3.4674399
-13.322278 45.819473 3.4555175
-13.17898 45.853592 3.4513719
-13.042809 45.910961 3.4504611
-24.247465 46.201733 2.4215333
-24.074854 46.222786 2.4123318
-23.883427 46.208179 2.399205
-23.798277 46.390079 2.4081633
-23.749674 46.642143 2.4249485
-14.253154 46.223782 1.8652689
-14.106892 46.255989 1.860975
-13.94237 46.230831 1.8509929
-13.791686 46.247787 1.845278
-13.722904 46.52549 1.8655922
-14.102901 46.166752 0.1947577
-13.947723 46.169807 0.18918681
-13.807772 46.219898 0.18661761
-13.74389 46.512421 0.19932628
-23.856478 38.506573 7.1909952
-24.506479 39.834705 7.4246068
-24.321993 39.814579 7.4065762
-23.920208 39.434799 7.3219123
-7.2652283 43.885658 7.0616465
-6.9482179 43.67197 7.0200982
-6.8018661 43.635033 7.0106916
-6.6625009 43.641544 7.0083399
-6.3888731 43.687428 7.0091233
-5.820025 43.67717 6.9950128
-5.6808572 43.68055 6.992661
-5.543611 43.698181 6.992661
-29.047512 44.355469 6.5215497
-28.897207 44.429859 6.5191078
-29.022224 45.258877 6.6131101
-28.813362 45.262764 6.5996809
-28.628529 45.268375 6.5880837
-28.425476 45.261425 6.5740442
-28.220125 45.249439 6.5593948
-28.017721 45.240841 6.5453553
-27.828671 45.252541 6.534368
-27.624285 45.238106 6.5197186
-27.433149 45.244034 6.5081205
-27.224337 45.219448 6.4922504
-27.0312 45.21957 6.480042
-26.851021 45.240246 6.4708858
-26.638205 45.204674 6.453795
-26.460983 45.228165 6.4452491
-26.268925 45.225243 6.4330411
-23.381823 44.385139 4.4022093
-23.239967 44.453957 4.4017725
-23.074974 44.478107 4.3969646
-22.903198 44.488388 4.3908453
-23.12875 45.966412 4.5154114
-22.950865 45.971992 4.5088553
-22.806313 46.043877 4.5088553
-18.882971 45.858917 4.3519459
-18.719976 45.871902 4.3475752
-18.547211 45.882935 4.3427672
-18.380756 45.885487 4.3375225
-18.240862 45.930561 4.3366485
-18.08919 45.969097 4.3348999
-17.923979 45.996349 4.3318405
-17.763229 46.010616 4.3279066
-17.597254 46.010365 4.3226619
-17.420866 45.981579 4.3147945
-17.25881 45.989452 4.3104239
-17.095165 45.992085 4.3056159
-16.925344 46.001781 4.3012452
-16.755196 45.984516 4.2946892
-16.588659 45.976025 4.2890072
-16.429045 45.985706 4.2850738
-16.266233 45.985435 4.2802658
-16.108501 45.998707 4.2767692
-15.944366 45.992599 4.271524
-15.785235 46.000069 4.2675905
-15.616603 45.978695 4.2610345
-15.460979 45.994476 4.2579751
-15.300694 45.995556 4.2536044
-15.138997 45.991352 4.2487965
-14.978999 45.991329 4.2444258
-14.819149 45.990753 4.2400546
-14.660987 45.994373 4.2361212
-14.499952 45.987946 4.2313132
-14.340586 45.985722 4.2269425
-14.182822 45.987713 4.2230091
-14.022283 45.979637 4.2182012
-13.863394 45.975773 4.2138305
-13.700911 45.988075 4.2107711
-13.545096 45.992672 4.2072744
-13.386627 45.987171 4.2029037
-13.233813 46.000286 4.2002811
-13.07426 45.98893 4.1954732
-12.91895 45.991409 4.1919765
-12.763731 45.993378 4.1884799
-12.606017 45.98521 4.1841092
-12.449759 45.981323 4.1801758
-12.296247 45.986523 4.1771164
-12.144094 45.996025 4.1744938
-11.986957 45.985756 4.1701231
-11.832508 45.984596 4.1666265
-11.676938 45.978096 4.162693
-11.523969 45.980732 4.1596332
-11.371099 45.982861 4.1565738
-11.215944 45.974808 4.1526399
-11.066804 45.990448 4.1508918
-8.3465948 45.973923 4.1001911
-8.1897135 45.976833 4.0980058
-8.0400934 45.972897 4.0953832
-7.8914223 45.973381 4.0931983
-7.7428041 45.973389 4.0910125
-7.5934749 45.968002 4.0883904
-7.4466219 45.976879 4.087079
-7.2974682 45.970531 4.0844564
-7.1514902 45.983387 4.0835824
-7.0009809 45.966236 4.0800858
-6.8528752 45.963367 4.0779004
-6.7041163 45.955101 4.0752778
-6.55972 45.975933 4.0752778
-6.4031086 45.967834 4.0726557
-6.2566366 45.972919 4.0713444
-6.1089058 45.967659 4.069159
-5.9612474 45.961926 4.0669737
-24.163544 46.240246 2.7391183
-24.002075 46.284897 2.7372832
-23.810843 46.271286 2.7320404
-14.104079 46.276798 2.5398905
-13.944792 46.304184 2.538842
-13.780741 46.285553 2.5354342
-13.63384 46.32383 2.535172
-13.553802 46.591766 2.5474927
-24.152418 46.238617 0.93898642
-23.981739 46.265438 0.93799657
-23.797386 46.264984 0.93646687
-23.689552 46.393272 0.93763661
-23.634096 46.645828 0.94123602
-14.081083 46.230278 0.86987847
-13.927711 46.276714 0.86987847
-13.766585 46.267532 0.86888862
-13.626793 46.329739 0.86924857
