# .PCD v0.7 - Point Cloud Data file format
VERSION 0.7
FIELDS x y z intensity
SIZE 4 4 4 4
TYPE F F F F
COUNT 1 1 1 1
WIDTH 1128
HEIGHT 1
VIEWPOINT 0 0 0 1 0 0 0
POINTS 1128
DATA ascii
2.7949405 -2.8952637 -3.4809918 5.3451543
2.7890813 -2.9025741 -3.4811187 5.2766261
2.7835085 -2.9094815 -3.4812386 5.3451543
2.7779133 -2.9163728 -3.4813581 5.2098336
2.7685294 -2.9201767 -3.4803007 5.3543906
2.7629006 -2.927021 -3.4804194 5.2857442
2.7535026 -2.9307539 -3.4793608 5.294908
2.7515805 -2.9406538 -3.4806561 5.3543906
2.7421582 -2.9443288 -3.4795964 5.434248
2.7401738 -2.9542165 -3.4808915 5.4971743
2.7344384 -2.9609714 -3.4810088 5.2857442
2.724983 -2.9645562 -3.4799476 5.294908
2.7192156 -2.9712622 -3.4800642 5.294908
2.7134266 -2.9779513 -3.4801803 5.3636737
2.7076178 -2.9846208 -3.4802961 5.3636737
2.7017868 -2.9912734 -3.4804118 5.2278843
2.6959357 -2.9979064 -3.4805269 5.294908
2.690064 -3.0045211 -3.4806418 5.434248
2.6841707 -3.0111184 -3.4807565 5.434248
2.6782572 -3.0176959 -3.4808707 5.3636737
2.6719923 -3.0246198 -3.4809914 5.3636737
2.6660371 -3.0311592 -3.4811049 5.3636737
2.6600609 -3.0376799 -3.4812183 5.3636737
2.6540635 -3.0441825 -3.4813313 5.294908
2.6480465 -3.0506656 -3.4814441 5.2278843
2.6420083 -3.0571306 -3.4815567 5.3636737
2.6324055 -3.0602536 -3.4804876 5.2369766
2.629873 -3.0700014 -3.4817805 5.294908
2.6234348 -3.0767646 -3.4818983 5.3636737
2.6173158 -3.0831511 -3.4820094 5.294908
2.6111755 -3.0895195 -3.4821203 5.294908
2.6050162 -3.0958674 -3.4822307 5.434248
2.6023185 -3.1055851 -3.4835231 5.3543906
2.5926373 -3.1085062 -3.4824507 5.294908
2.5898774 -3.1182075 -3.483743 5.2857442
2.5836279 -3.1244884 -3.4838524 5.3543906
2.573921 -3.1273174 -3.4827785 5.434248
2.5676434 -3.1335483 -3.482887 5.3636737
2.5613449 -3.13976 -3.4829953 5.434248
2.5550272 -3.1459525 -3.4831033 5.434248
2.5486922 -3.1521227 -3.4832106 5.434248
2.5423355 -3.1582751 -3.4833179 5.434248
2.5393333 -3.1679034 -3.4846089 5.3543906
2.532927 -3.1740263 -3.4847157 5.3543906
2.5261452 -3.1804662 -3.484828 5.2857442
2.5197005 -3.1865468 -3.4849341 5.2188363
2.5132358 -3.1926079 -3.4850397 5.3543906
2.5067534 -3.1986477 -3.4851451 5.4248428
2.5002511 -3.2046683 -3.4852502 5.2857442
2.4937303 -3.2106671 -3.4853549 5.3543906
2.487191 -3.2166457 -3.4854593 5.4971743
2.4806321 -3.2226043 -3.4855633 5.4248428
2.4740555 -3.2285419 -3.485667 5.4248428
2.4674592 -3.2344594 -3.4857705 5.4971743
2.4604774 -3.2406821 -3.4858789 5.3543906
2.4538438 -3.246556 -3.4859817 5.2857442
2.447191 -3.2524099 -3.486084 5.2857442
2.440891 -3.2579195 -3.4861803 5.2188363
2.4306409 -3.2603912 -3.4851005 5.434248
2.4239459 -3.2661715 -3.4852014 5.3636737
2.4140661 -3.2682481 -3.4841149 5.4436994
2.4073453 -3.273977 -3.484215 5.5162821
2.4006069 -3.2796848 -3.4843149 5.5162821
2.3938513 -3.2853703 -3.4844143 5.5908265
2.3870778 -3.2910349 -3.4845133 5.5908265
2.383395 -3.3004096 -3.4858003 5.5811195
2.373477 -3.3023007 -3.4847105 5.5908265
2.3666494 -3.3079016 -3.4848084 5.5908265
2.3598053 -3.3134806 -3.4849062 5.5908265
2.3498828 -3.3152671 -3.4838147 5.5259085
2.3426328 -3.3211005 -3.4839168 5.6005826
2.338784 -3.3303945 -3.4852023 5.5162821
2.3284597 -3.3323903 -3.4841146 5.6005826
2.3249364 -3.341356 -3.4853945 5.5908265
2.3179877 -3.3468037 -3.4854898 5.5162821
2.3110206 -3.3522303 -3.4855852 5.5908265
2.3040378 -3.3576343 -3.4856799 5.4436994
2.2970366 -3.3630168 -3.4857743 5.4436994
2.2870691 -3.3645198 -3.4846778 5.5259085
2.2800462 -3.3698492 -3.4847713 5.3823786
2.2642245 -3.363533 -3.4812922 5.3414202
2.2659521 -3.380441 -3.4849572 5.0541849
2.2555854 -3.3821015 -3.4838638 4.8843374
2.2299044 -3.3768933 -3.4792814 2.5650768
2.2203703 -3.3778374 -3.4781754 3.2469108
2.2190149 -3.390815 -3.4806485 3.1618736
2.206229 -3.3880534 -3.4783549 3.1257572
2.1987398 -3.3934093 -3.4784489 3.0573101
2.1916275 -3.3984611 -3.4785378 3.0573101
2.1816962 -3.3995259 -3.4774339 3.0405736
2.1745656 -3.4045234 -3.4775219 3.0186989
2.1701972 -3.4134808 -3.478802 2.970578
2.1602566 -3.4144518 -3.4776964 2.9758804
2.1558318 -3.4233816 -3.478976 2.9290314
2.1458855 -3.4242902 -3.4778695 2.8937874
2.1386771 -3.4291749 -3.4779556 2.9342597
2.1310523 -3.4343069 -3.4780459 2.913883
2.1238112 -3.4391456 -3.4781311 2.8937874
2.1169603 -3.4436944 -3.4782112 2.8739669
2.1092858 -3.4487545 -3.4783003 2.8937874
2.102001 -3.4535244 -3.4783845 2.9342597
2.0947013 -3.4582713 -3.4784682 2.9549236
2.0873854 -3.462996 -3.4785514 2.8739669
2.080056 -3.4676969 -3.4786344 2.8544159
2.0727108 -3.4723756 -3.4787169 2.8544159
2.065352 -3.4770303 -3.4787989 2.9342597
2.0553927 -3.4775524 -3.4776859 2.8989697
2.0480165 -3.4821537 -3.477767 2.8791137
2.0406275 -3.4867308 -3.4778481 2.9191012
2.0357692 -3.4954193 -3.4791236 2.8937874
2.0283382 -3.499958 -3.4792037 2.8544159
2.020479 -3.5047233 -3.4792879 2.8544159
2.0130174 -3.5092146 -3.4793673 2.8937874
2.0055432 -3.5136819 -3.4794464 2.8739669
1.9980536 -3.5181262 -3.4795249 2.9342597
1.9880843 -3.5183649 -3.4784069 2.8595276
1.9830353 -3.5269427 -3.4796808 2.8544159
1.9755044 -3.5313163 -3.4797583 2.9549236
1.9679608 -3.5356655 -3.4798353 2.9342597
1.9604025 -3.5399916 -3.4799118 2.8739669
1.9528317 -3.5442934 -3.4799881 2.9342597
1.9452477 -3.5485713 -3.4800639 2.8544159
1.937649 -3.5528262 -3.4801393 2.8739669
1.9296145 -3.5572906 -3.4802184 2.9342597
1.9219897 -3.5614955 -3.4802928 2.8937874
1.9143505 -3.5656772 -3.4803672 2.8937874
1.9066992 -3.5698342 -3.4804409 2.8937874
1.899034 -3.5739677 -3.4805143 2.913883
1.8936491 -3.582355 -3.4817851 2.9917965
1.8836665 -3.5821612 -3.4806597 2.9758804
1.8759625 -3.5862224 -3.480732 3.0186989
1.8659947 -3.585958 -3.4796054 2.9602153
1.8605177 -3.5942712 -3.480875 3.0405736
1.8523464 -3.5984797 -3.4809496 3.0627675
1.8445926 -3.6024418 -3.4810202 3.1081419
1.8390217 -3.6107082 -3.4822891 3.1026037
1.8312294 -3.6146286 -3.4823587 3.1257572
1.8255932 -3.6228673 -3.4836271 3.1916604
1.818198 -3.6265304 -3.4836924 3.1202052
1.8103559 -3.6303852 -3.4837611 3.2411437
1.8046298 -3.6385777 -3.4850287 2.3714051
1.7984262 -3.64697 -3.4862998 2.7053947
1.7905185 -3.650763 -3.4863675 3.3599257
1.7842464 -3.659122 -3.487638 4.5703073
1.7767437 -3.662662 -3.4877014 5.0719261
1.7708461 -3.6707823 -3.4889677 5.3226757
1.7608197 -3.6700864 -3.487834 5.4012718
1.7528396 -3.6737609 -3.4878995 5.1987238
1.7448492 -3.6774101 -3.4879649 5.2645307
1.7368474 -3.6810343 -3.4880295 6.3014836
1.7268436 -3.6802063 -3.4868934 6.0381274
1.718832 -3.6837745 -3.4869573 6.4097042
1.7108104 -3.6873167 -3.4870207 5.8680391
1.7023313 -3.6910284 -3.4870872 5.7072711
1.6942871 -3.6945186 -3.4871497 5.7072711
1.6862307 -3.6979842 -3.4872119 5.7072711
1.6781635 -3.7014246 -3.4872737 5.7072711
1.6700866 -3.704839 -3.487335 5.7072711
1.6601229 -3.703752 -3.4861944 5.6400986
1.6539011 -3.7115917 -3.4874563 5.6301455
1.6457913 -3.7149305 -3.4875162 5.5550771
1.637671 -3.7182436 -3.4875758 5.5550771
1.6295428 -3.7215302 -3.4876349 5.6301455
1.6214018 -3.7247925 -3.4876935 5.6301455
1.6132519 -3.7280283 -3.4877517 5.5550771
1.6050906 -3.7312393 -3.4878097 5.6301455
1.5969205 -3.7344241 -3.4878669 5.7072711
1.5887406 -3.7375832 -3.4879241 5.7072711
1.5805494 -3.7407169 -3.4879804 5.8680391
1.5723482 -3.7438252 -3.4880366 5.8680391
1.5641389 -3.7469068 -3.4880922 6.2183695
1.5559196 -3.7499628 -3.4881475 6.2183695
1.5476911 -3.7529933 -3.4882023 6.0381274
1.5389937 -3.7561641 -3.4882596 6.4097042
1.5307443 -3.7591414 -3.4883134 6.1269236
1.5224869 -3.7620928 -3.4883671 5.9518685
1.5142202 -3.765018 -3.48842 5.8680391
1.5043404 -3.7633369 -3.4872694 5.7967682
1.4960687 -3.7662055 -3.4873214 5.6400986
1.487788 -3.769048 -3.4873729 5.7173605
1.4779391 -3.7672689 -3.4862206 5.7275004
1.4696566 -3.7700543 -3.4862714 5.6501017
1.4613653 -3.7728136 -3.4863214 5.6501017
1.4530642 -3.775547 -3.4863713 5.5014143
1.4447546 -3.7782545 -3.4864206 5.4299679
1.4364376 -3.7809353 -3.4864693 5.3603525
1.4266388 -3.7789662 -3.4853139 5.43963
1.4183199 -3.78159 -3.4853616 5.3698907
1.4099914 -3.7841885 -3.4854093 5.3698907
1.4011915 -3.7869027 -3.4854589 5.3698907
1.3928478 -3.7894468 -3.4855053 5.43963
1.3840318 -3.7921035 -3.485554 5.3019176
1.376135 -3.7944565 -3.4855971 5.3019176
1.3677677 -3.7969217 -3.4856422 5.3698907
1.3593912 -3.7993612 -3.485687 5.2356434
1.3510085 -3.8017738 -3.4857314 5.43963
1.3426182 -3.8041604 -3.4857752 5.43963
1.3337526 -3.8066509 -3.485821 5.3698907
1.3253469 -3.8089833 -3.4858642 5.43963
1.3182137 -3.8159699 -3.4871116 5.4299679
1.3110464 -3.8229375 -3.488359 5.5648975
1.3025885 -3.8251984 -3.4884005 5.9623904
1.2958314 -3.8320017 -3.489645 5.9518685
1.2868745 -3.8343368 -3.4896882 5.5550771
1.2771752 -3.8318214 -3.4885232 5.350863
1.2674985 -3.829272 -3.4873576 5.0988722
1.2590209 -3.8313961 -3.4873972 5.7275004
1.2505367 -3.8334937 -3.4874361 5.8070488
1.2420471 -3.8355644 -3.4874747 5.7275004
1.2335511 -3.8376086 -3.4875128 5.7275004
1.2250476 -3.8396261 -3.4875503 5.6501017
1.2165389 -3.8416166 -3.4875875 5.5747671
1.2069347 -3.8388517 -3.4864182 5.5846868
1.1984286 -3.8407853 -3.4864545 5.5112038
1.1899166 -3.8426921 -3.4864902 5.5846868
1.1803541 -3.8398342 -3.4853194 5.5946555
1.1718452 -3.8416841 -3.4853542 5.5946555
1.1628559 -3.8436084 -3.4853904 5.4493399
1.1543351 -3.8454037 -3.4854243 5.5210414
1.1458089 -3.847172 -3.4854577 5.4493399
1.1372757 -3.8489139 -3.4854906 5.3794761
1.1287385 -3.8506286 -3.4855232 5.4493399
1.1211319 -3.8570774 -3.4867618 5.3698907
1.1134914 -3.8635056 -3.4879999 5.4299679
1.1049082 -3.8651454 -3.4880314 5.3603525
1.0972111 -3.8715284 -3.4892688 5.4203548
1.0886028 -3.8731172 -3.4892991 5.8784127
1.079126 -3.8699043 -3.4881222 5.6501017
1.0696758 -3.8666584 -3.4869447 5.6601553
1.0606055 -3.8682435 -3.4869752 5.5112038
1.0520065 -3.8697176 -3.4870036 5.3019176
1.0426033 -3.866379 -3.4858246 5.2449889
1.0344876 -3.8677189 -3.4858503 5.117063
1.0254141 -3.8691871 -3.4858789 4.9952283
1.0168138 -3.8705504 -3.4859054 4.8790598
1.0082077 -3.8718872 -3.4859316 4.8229785
0.99959874 -3.8731964 -3.4859571 4.8229785
0.99098468 -3.8744788 -3.4859824 4.6622128
0.98236775 -3.8757341 -3.486007 4.5118189
0.97306693 -3.8721578 -3.4848239 4.2892914
1.225129 -4.4025736 -3.5035782 5.3817205
1.2139262 -4.3997593 -3.5025783 5.5707283
1.2036574 -4.4017119 -3.5026155 5.4778829
1.1933811 -4.4036326 -3.5026522 5.5707283
1.18398 -4.4103322 -3.5037262 5.5641518
1.1736765 -4.4121914 -3.5037618 5.471416
1.1633687 -4.4140177 -3.5037971 5.2949185
1.1530554 -4.4158115 -3.5038314 5.6600852
1.142735 -4.417573 -3.5038655 5.5641518
1.1324089 -4.4193029 -3.5038989 5.2108722
1.1220791 -4.4209995 -3.5039318 5.3817205
1.1109707 -4.4178343 -3.5029259 5.301177
1.1006458 -4.4194636 -3.5029576 5.4778829
1.0903141 -4.4210606 -3.5029888 5.3880816
1.0799776 -4.4226255 -3.5030193 5.301177
1.0696375 -4.4241571 -3.5030494 5.301177
1.059293 -4.4256568 -3.5030789 5.6667752
1.0489436 -4.427124 -3.503108 5.6667752
1.038588 -4.4285583 -3.5031364 5.6667752
1.0282282 -4.4299612 -3.5031643 5.217031
1.0178671 -4.4313297 -3.5031915 5.5707283
1.0074985 -4.4326668 -3.5032182 5.4778829
0.99712729 -4.4339709 -3.5032444 5.301177
0.9867506 -4.4352431 -3.5032701 5.6667752
0.97636998 -4.4364824 -3.5032952 5.4778829
0.96598852 -4.4376888 -3.5033197 5.301177
0.95560038 -4.4388628 -3.5033436 5.3880816
0.94520998 -4.4400039 -3.5033672 5.3880816
0.93481457 -4.4411125 -3.5033901 5.4778829
0.92383945 -4.4422474 -3.5034137 5.6667752
0.91343856 -4.4432888 -3.5034354 5.5707283
0.90303302 -4.4442978 -3.5034566 5.301177
0.89320433 -4.4452209 -3.5034761 5.1355152
0.88235605 -4.4412951 -3.5024571 5.1416078
0.87195837 -4.4422064 -3.5024767 5.394474
0.86138523 -4.4480066 -3.5035357 5.1355152
0.8509649 -4.4488516 -3.5035541 5.1355152
0.840168 -4.444788 -3.5025327 5.2232208
0.83011842 -4.4504442 -3.5035892 5.3880816
0.81934893 -4.4463124 -3.5025668 5.394474
0.80893588 -4.4470258 -3.502583 5.4843822
0.79851913 -4.4477067 -3.5025985 5.4843822
0.78810024 -4.4483547 -3.5026135 5.394474
0.77768099 -4.4489698 -3.5026281 5.2232208
0.76725984 -4.4495516 -3.5026419 5.5773377
0.75683689 -4.4501019 -3.5026553 5.4843822
0.74641073 -4.4506187 -3.5026681 5.1416078
0.73598289 -4.4511023 -3.5026803 5.1416078
0.72555518 -4.4515543 -3.502692 5.3074665
0.71493673 -4.4470854 -3.5016637 5.1477337
0.70469594 -4.4523587 -3.5027137 5.4843822
0.69426286 -4.4527121 -3.5027237 5.4843822
0.68440843 -4.4530153 -3.5027328 5.394474
0.67339528 -4.4533195 -3.5027423 5.0625062
0.66307342 -4.4584637 -3.5037899 5.217031
0.65262151 -4.4586859 -3.5037978 5.3880816
0.64217031 -4.4588757 -3.5038052 5.301177
0.63171709 -4.4590321 -3.5038118 5.5707283
0.62131751 -4.4640465 -3.5048573 5.5641518
0.61084783 -4.464138 -3.5048628 5.471416
0.60037833 -4.4641962 -3.504868 5.5641518
0.58991009 -4.464221 -3.5048723 5.7593846
0.57942945 -4.4691048 -3.5059156 5.375392
0.56894737 -4.4690647 -3.5059192 5.288692
0.55846232 -4.4689908 -3.5059218 5.6534295
0.54797763 -4.4688845 -3.5059242 5.464982
0.53749496 -4.4687452 -3.5059257 5.464982
0.52701265 -4.4685731 -3.5059268 5.5576086
0.51653093 -4.4683681 -3.5059273 5.375392
0.50604844 -4.4681301 -3.5059273 5.464982
0.49556658 -4.4678593 -3.5059268 5.5576086
0.48493779 -4.4724436 -3.5069652 5.2824974
0.47460905 -4.4672184 -3.505924 5.288692
0.46395153 -4.471736 -3.5069613 5.3690958
0.45326281 -4.4762197 -3.507998 5.4522133
0.44275582 -4.4757829 -3.5079944 5.2763352
0.43225175 -4.4753132 -3.5079904 5.4522133
0.42174929 -4.4748101 -3.5079861 5.7391715
0.41124839 -4.4742746 -3.5079808 5.7391715
0.40074772 -4.4737058 -3.5079751 5.4522133
0.39024878 -4.473104 -3.5079689 5.4522133
0.37944978 -4.4773512 -3.5090017 5.5381799
0.36894119 -4.4766822 -3.5089943 5.1865492
0.35843307 -4.4759808 -3.5089865 5.1055093
0.34792876 -4.475246 -3.5089779 5.3565998
0.33742529 -4.4744782 -3.5089688 5.6336651
0.32692587 -4.4736776 -3.5089593 5.4458766
0.31642902 -4.4728441 -3.5089493 5.5381799
0.30552199 -4.4768505 -3.5099778 5.3504
0.29501525 -4.4759502 -3.5099666 5.4395733
0.28450963 -4.4750161 -3.5099547 5.6271443
0.27446598 -4.4691801 -3.508903 5.5381799
0.26398349 -4.4681816 -3.5088899 5.1865492
0.25350267 -4.4671502 -3.5088763 5.4458766
0.24302655 -4.4660864 -3.5088623 5.6336651
0.23203388 -4.469852 -3.5098867 5.1805458
0.22154936 -4.4687204 -3.5098715 5.2641029
0.21106854 -4.467556 -3.5098557 5.3504
0.20058969 -4.4663582 -3.5098395 5.3504
0.19011649 -4.4651279 -3.5098224 5.3504
0.17964551 -4.4638643 -3.509805 5.6271443
0.16918162 -4.4625688 -3.5097868 5.4395733
0.15871879 -4.4612393 -3.5097682 5.4395733
0.14826027 -4.459877 -3.5097492 5.2641029
0.13780752 -4.4584827 -3.5097294 5.4395733
0.12735769 -4.4570551 -3.5097089 5.4395733
0.11691394 -4.455595 -3.5096881 5.3504
0.10577264 -4.4589415 -3.5107057 5.5253925
0.095321387 -4.4574137 -3.5106835 5.7192655
0.084876657 -4.4558525 -3.5106611 5.6206574
0.074436784 -4.4542589 -3.510638 5.5253925
0.064000547 -4.452632 -3.5106142 5.4333024
0.053570986 -4.4509726 -3.5105901 5.6206574
0.043145061 -4.4492803 -3.5105653 5.5253925
0.031917393 -4.4523792 -3.5115786 5.614203
0.021488667 -4.4506187 -3.5115523 5.427063
0.011064053 -4.4488258 -3.5115259 5.0878716
-0.000207901 -4.4518166 -3.5125375 5.2459888
-0.01063627 -4.449955 -3.5125098 5.2459888
-0.02105701 -4.448061 -3.5124815 5.0820518
-0.031472027 -4.4461346 -3.5124526 5.1627192
-0.041882396 -4.4441757 -3.5124233 5.0820518
-0.052284896 -4.4421835 -3.5123935 5.1627192
-0.062682867 -4.4401588 -3.512363 5.0820518
-0.073072672 -4.4381018 -3.512332 5.1627192
-0.084431648 -4.4408045 -3.5133386 5.1568379
-0.094825029 -4.4386787 -3.5133061 5.2400126
-0.10521007 -4.4365206 -3.5132735 5.2400126
-0.11558998 -4.434329 -3.5132401 5.5064545
-0.12596124 -4.432106 -3.5132062 5.2400126
-0.13632554 -4.4298506 -3.5131717 5.41468
-0.1477505 -4.4323349 -3.5141747 5.3198705
-0.15811545 -4.4300108 -3.5141392 5.6931944
-0.1695708 -4.4324207 -3.5151408 5.493989
-0.17993593 -4.430027 -3.5151041 5.6867599
-0.19029355 -4.4276018 -3.5150666 5.493989
-0.20064497 -4.4251437 -3.5150287 5.493989
-0.21098721 -4.4226532 -3.5149903 5.313858
-0.22132301 -4.4201298 -3.5149512 5.4024224
-0.23164934 -4.4175749 -3.5149117 5.145164
-0.24196762 -4.4149871 -3.5148716 5.4024224
-0.25227916 -4.4123664 -3.5148311 5.2281504
-0.26258099 -4.4097137 -3.5147896 5.5887122
-0.27287591 -4.4070287 -3.5147479 5.493989
-0.28316075 -4.4043112 -3.5147057 5.313858
-0.29343712 -4.4015622 -3.5146627 5.4024224
-0.30370629 -4.3987799 -3.5146194 5.145164
-0.31396508 -4.3959656 -3.5145752 5.145164
-0.32553542 -4.3978295 -3.5155675 5.1393723
-0.33579278 -4.3949471 -3.5155225 5.0590696
-0.34603941 -4.3920317 -3.5154767 5.0590696
-0.35627836 -4.3890848 -3.5154305 5.0590696
-0.36650658 -4.3861055 -3.5153837 5.0590696
-0.37672532 -4.3830948 -3.5153363 5.0590696
-0.38693613 -4.3800507 -3.5152884 5.3078761
-0.39713567 -4.3769751 -3.5152397 5.0590696
-0.40732718 -4.3738675 -3.5151908 5.2222652
-0.41952664 -4.3752232 -3.5161748 5.1336088
-0.42824215 -4.3673797 -3.5150883 5.3963408
-0.43727499 -4.364532 -3.5150433 5.1393723
-0.44686192 -4.3614793 -3.5149949 5.1393723
-0.45756739 -4.3580327 -3.5149403 5.3963408
-0.46825999 -4.3545518 -3.5148852 5.1393723
-0.4799208 -4.3558636 -3.5158682 5.2164087
-0.49004537 -4.3524957 -3.5158148 5.0533962
-0.50015801 -4.3490963 -3.5157607 5.1336088
-0.51026148 -4.345665 -3.5157061 5.2164087
-0.52035242 -4.3422027 -3.515651 5.1336088
-0.53099221 -4.3385134 -3.5155923 5.2164087
-0.5410623 -4.3349857 -3.5155361 5.2164087
-0.55111951 -4.3314261 -3.5154793 4.9756513
-0.5611667 -4.3278351 -3.5154219 5.1336088
-0.57231742 -4.3290114 -3.5164025 4.9700956
-0.58291382 -4.3251495 -3.5163407 5.0477533
-0.59294075 -4.3214588 -3.5162818 5.0477533
-0.60295588 -4.3177366 -3.5162222 5.1278763
-0.61122829 -4.3094077 -3.5151272 5.0533962
-0.62120539 -4.3056283 -3.5150666 5.0533962
-0.63117069 -4.3018169 -3.5150056 5.1336088
-0.64112407 -4.2979746 -3.5149441 5.3019238
-0.65106517 -4.2941012 -3.5148818 5.2164087
-0.66099411 -4.2901964 -3.5148191 5.2164087
-0.67272812 -4.290802 -3.51579 5.1278763
-0.68264669 -4.2868299 -3.5157263 5.0477533
-0.69439882 -4.2873564 -3.516696 5.1221724
-0.70430642 -4.2833157 -3.5166309 5.2047877
-0.71420115 -4.2792435 -3.5165653 5.1221724
-0.72597224 -4.2796526 -3.5175331 5.036552
-0.73585552 -4.2755127 -3.5174663 5.2842512
-0.74572569 -4.2713413 -3.5173991 5.2842512
-0.75558287 -4.2671394 -3.5173311 5.1990213
-0.76737231 -4.2673955 -3.5182965 5.1108508
-0.77721709 -4.2631254 -3.5182276 5.1108508
-0.78704828 -4.2588243 -3.518158 5.0309935
-0.79487783 -4.2500229 -3.5170548 4.9590664
-0.80466777 -4.2456665 -3.5169842 4.9590664
-0.81444377 -4.2412796 -3.5169134 4.9590664
-0.82420617 -4.2368622 -3.5168419 4.9590664
-0.83395463 -4.2324133 -3.5167699 4.9590664
-0.84574717 -4.2323732 -3.5177298 4.9535937
-0.85548145 -4.2278571 -3.5176568 4.9535937
-0.86520153 -4.2233105 -3.5175829 4.9535937
-0.87700719 -4.2231522 -3.5185409 5.1052337
-0.88882655 -4.22295 -3.5194983 5.1818976
-0.90065891 -4.2227039 -3.5204549 5.0144906
-0.91036266 -4.2180157 -3.5203788 4.9373446
-0.9222073 -4.2176886 -3.5213339 5.0885539
-0.9318952 -4.2129326 -3.5212567 5.0885539
-0.9415682 -4.2081461 -3.5211787 5.0885539
-0.95122594 -4.2033291 -3.5211005 5.2553916
-0.96086878 -4.1984825 -3.5210216 5.2553916
-0.970496 -4.1936045 -3.5209422 5.0090451
-0.98234636 -4.193047 -3.5218935 5.0830507
-0.99195677 -4.1881022 -3.5218129 5.1650357
-1.0015514 -4.1831274 -3.5217319 5.2497082
-1.0134099 -4.1824517 -3.5226812 5.159472
-1.0229867 -4.1774092 -3.522599 4.9982386
-1.0325475 -4.1723366 -3.5225163 5.0775757
-1.0420926 -4.1672344 -3.5224328 4.9982386
-1.0539553 -4.1664019 -3.5233796 4.9928761
-1.0634816 -4.161232 -3.5232949 4.9928761
-1.0753527 -4.1603184 -3.5242403 5.2328305
-1.0848596 -4.1550813 -3.5241547 5.0667086
-1.0943503 -4.1498146 -3.5240688 5.1484299
-1.1038244 -4.1445179 -3.523982 5.1484299
-1.1132817 -4.1391926 -3.523895 5.0667086
-1.1227221 -4.1338363 -3.5238075 5.4102144
-1.1321459 -4.1284509 -3.5237193 4.9875412
-1.1415527 -4.1230354 -3.5236306 4.9875412
-1.1509423 -4.1175909 -3.5235415 5.0667086
-1.1603148 -4.1121168 -3.5234518 5.1484299
-1.1721652 -4.1108227 -3.5243905 4.982234
-1.1815162 -4.1052818 -3.5242996 5.061317
-1.1908498 -4.0997114 -3.5242085 5.061317
-1.2027006 -4.0982981 -3.5251451 4.9003839
-1.2120125 -4.0926614 -3.5250525 4.9003839
-1.2213063 -4.0869951 -3.5249596 4.9003839
-1.2305825 -4.0813007 -3.5248661 4.9003839
-1.2398407 -4.0755768 -3.5247722 4.9003839
-1.2490809 -4.0698237 -3.5246778 4.9003839
-1.2583029 -4.0640416 -3.5245829 4.8261356
-1.2675066 -4.0582304 -3.5244875 4.9003839
-1.2766922 -4.0523906 -3.5243914 4.8261356
-1.2885118 -4.0506339 -3.5253222 4.8952112
-1.2976732 -4.0447283 -3.5252252 4.9716992
-1.3121731 -4.0469837 -3.5271816 4.9612722
-1.3240144 -4.0450907 -3.5281103 5.2865052
-1.3331585 -4.0390735 -3.5280113 5.0347667
-1.3422837 -4.0330276 -3.5279117 5.3761067
-1.3541198 -4.0310135 -3.5288382 5.2810154
-1.360477 -4.0208497 -3.5277112 5.199841
-1.3695447 -4.0147181 -3.5276103 5.2865052
-1.3785932 -4.0085573 -3.5275087 4.9560986
-1.3876224 -4.0023689 -3.5274067 4.9560986
-1.3994255 -4.0001698 -3.5283301 4.9509516
-1.4084282 -3.9939158 -3.5282271 5.1106601
-1.4174111 -3.9876335 -3.5281234 5.1944413
-1.4263742 -3.981323 -3.5280194 5.463119
-1.4381616 -3.9789672 -3.52894 5.0243354
-1.4470975 -3.9725914 -3.5288348 5.1890678
-1.4560137 -3.9661882 -3.5287292 5.2755523
-1.4649091 -3.9597564 -3.5286231 5.1890678
-1.4761853 -3.9576035 -3.529547 5.0191603
-1.485054 -3.9511087 -3.5294397 5.2701182
-1.4914744 -3.9402945 -3.5283017 5.4574676
-1.5032196 -3.9376705 -3.5292177 5.4518461
-1.5120254 -3.9310908 -3.529109 5.183723
-1.5208106 -3.9244835 -3.5289998 5.0191603
-1.5295751 -3.9178483 -3.5288901 5.183723
-1.5383184 -3.911186 -3.52878 5.183723
-1.5470409 -3.9044964 -3.5286694 5.183723
-1.5557425 -3.897779 -3.5285583 5.0191603
-1.563941 -3.8914099 -3.5284529 5.183723
-1.5730817 -3.8842628 -3.5283346 5.0191603
-1.5847611 -3.8812983 -3.5292449 4.935667
-1.5933897 -3.8744631 -3.5291319 5.094882
-1.6019967 -3.8676002 -3.5290182 5.1784048
-1.6136591 -3.8645165 -3.5299263 5.0088878
-1.6222348 -3.85759 -3.5298116 5.0088878
-1.6307886 -3.8506365 -3.5296965 5.0088878
-1.6424341 -3.8474338 -3.5306027 4.9256063
-1.6509559 -3.8404169 -3.5304863 4.9256063
-1.6594558 -3.8333735 -3.5303698 4.9256063
-1.6679335 -3.8263037 -3.5302525 4.9256063
-1.6763887 -3.819207 -3.5301347 4.9256063
-1.6848216 -3.812084 -3.5300167 4.9256063
-1.6964166 -3.8086519 -3.5309191 4.9206147
-1.7048163 -3.801466 -3.5307999 5.0793443
-1.7131934 -3.7942538 -3.5306802 4.9206147
-1.7247674 -3.7907016 -3.5315802 4.9156485
-1.7331107 -3.783427 -3.5314593 4.9156485
-1.741431 -3.7761259 -3.5313382 4.9156485
-1.7497284 -3.7687986 -3.5312166 4.9156485
-1.758003 -3.7614455 -3.5310946 4.9156485
-1.7657962 -3.754477 -3.5309789 4.840023
-1.7740254 -3.7470732 -3.5308559 4.9936748
-1.7822313 -3.7396438 -3.5307324 4.9156485
-1.7904141 -3.7321887 -3.5306087 4.840023
-1.8018954 -3.7283032 -3.5315032 4.8351583
-1.8100421 -3.7207861 -3.5313783 4.8351583
-1.8215101 -3.7168181 -3.5322711 4.9057918
-1.8296208 -3.7092395 -3.5321453 4.9836617
-1.8377078 -3.7016356 -3.5320187 5.2328448
-1.8491495 -3.6975491 -3.5329099 5.0589948
-1.8571997 -3.6898837 -3.5327823 5.2276282
-1.8652256 -3.6821933 -3.5326543 4.9009013
-1.8732276 -3.6744778 -3.532526 4.9786935
-1.8846278 -3.6702368 -3.5334144 4.8960357
-1.892592 -3.6624603 -3.5332849 5.1368246
-1.9039772 -3.6581371 -3.5341718 5.0489759
-1.9119031 -3.6503003 -3.5340414 5.2172751
-1.9232714 -3.6458943 -3.5349269 4.8863792
-1.9311588 -3.6379967 -3.5347953 4.9639406
-1.9425106 -3.6335087 -3.5356796 4.9590731
-1.9503593 -3.6255507 -3.535547 5.121666
-1.9581828 -3.617568 -3.535414 5.207027
-1.9659815 -3.6095607 -3.5352807 5.121666
-1.9737549 -3.6015291 -3.5351467 5.0390582
-1.9815028 -3.593473 -3.5350125 5.5789571
-1.9892254 -3.5853925 -3.5348778 5.207027
-2.0004864 -3.5806451 -3.5357575 5.1166639
-2.0081687 -3.5725052 -3.5356216 4.9542303
-2.0158253 -3.5643408 -3.5354855 5.0341372
-2.0270519 -3.5594761 -3.5363631 4.8720775
-2.0346675 -3.5512531 -3.536226 4.8720775
-2.0422575 -3.5430059 -3.5360885 5.1116881
-2.0498214 -3.5347352 -3.5359504 4.8720775
-2.0577772 -3.5259788 -3.5358043 4.9494123
-2.0689354 -3.5209248 -3.5366788 4.8673592
-2.0800884 -3.5158246 -3.5375524 4.9398499
-2.0875669 -3.5074348 -3.5374124 5.1868424
-2.0986974 -3.5022531 -3.5382845 4.9351053
-2.1057205 -3.4942749 -3.5381513 4.8579946
-2.1168301 -3.4890134 -3.5390222 5.1769037
-2.1242242 -3.4805086 -3.5388801 4.9303846
-2.1315916 -3.4719803 -3.5387378 5.0920367
-2.1393392 -3.4629533 -3.5385869 5.264648
-2.146651 -3.4543779 -3.5384436 5.0099068
-2.1539361 -3.4457796 -3.5383 5.0099068
-2.1649535 -3.4402959 -3.5391669 4.9256883
-2.1759634 -3.4347661 -3.5400333 4.9210157
-2.1831868 -3.4260759 -3.5398879 5.1670666
-2.190383 -3.4173627 -3.5397425 5.1670666
-2.2013502 -3.4117172 -3.5406065 5.0775595
-2.2085013 -3.4029472 -3.5404599 5.2496805
-2.2156248 -3.3941545 -3.5403128 5.1621857
-2.2227204 -3.38534 -3.5401654 5.1621857
-2.2336257 -3.3795452 -3.5410271 4.9909644
-2.2406754 -3.3706737 -3.5408788 5.3351684
-2.2515538 -3.3647988 -3.541739 5.1524982
-2.2585571 -3.3558712 -3.5415897 5.0680308
-2.269408 -3.3499155 -3.5424485 5.2349405
-2.2759788 -3.3414316 -3.5423067 5.063303
-2.2829087 -3.3324275 -3.5421557 5.063303
-2.2937136 -3.3263595 -3.5430129 4.8214774
-2.3009775 -3.3167956 -3.5428526 5.142909
-2.3078299 -3.3077133 -3.5427008 5.2300773
-2.3185849 -3.3015296 -3.5435557 5.0539198
-2.3253899 -3.2923918 -3.5434027 5.1381516
-2.3321652 -3.2832329 -3.5432491 5.1381516
-2.3389125 -3.2740524 -3.5430954 5.1381516
-2.3456302 -3.2648509 -3.5429411 5.0539198
-2.3519485 -3.2561414 -3.5427952 5.2252393
-2.3625958 -3.2497456 -3.5436466 5.1334181
-2.3692374 -3.2404695 -3.5434911 5.310432
-2.3758497 -3.231173 -3.5433352 5.2204251
-2.3824329 -3.2218559 -3.543179 5.1334181
-2.393008 -3.2153139 -3.5440278 5.2156363
-2.3995414 -3.2059426 -3.5438709 5.2156363
-2.410084 -3.1993217 -3.5447183 5.3007135
-2.4165673 -3.1898971 -3.5445602 5.2108717
-2.4230204 -3.1804521 -3.5444016 5.1240234
-2.4294441 -3.1709869 -3.5442431 5.3007135
-2.4399114 -3.1642215 -3.5450881 5.2061305
-2.4462843 -3.1547031 -3.5449283 5.3888016
-2.4526269 -3.1451652 -3.5447683 5.4850302
-2.4630392 -3.1382885 -3.5456114 5.2910933
-2.4693301 -3.1286976 -3.5454504 5.2014146
-2.4755912 -3.1190872 -3.545289 5.4800615
-2.4818218 -3.1094575 -3.5451274 5.2014146
-2.4880221 -3.0998077 -3.5449653 5.2014146
-2.498333 -3.0927553 -3.5458055 5.2863207
-2.5041401 -3.0835934 -3.5456514 5.1101103
-2.5102592 -3.0738738 -3.5454884 5.3790631
-2.5205131 -3.0667131 -3.5463266 5.1055198
-2.5307527 -3.0595069 -3.547164 5.1009526
-2.5367959 -3.0497041 -3.5469992 5.0173306
-2.546998 -3.0424209 -3.5478354 5.0964088
-2.5529876 -3.032567 -3.5476699 5.2721467
-2.5589461 -3.0226941 -3.5475039 5.0964088
-2.569087 -3.0153019 -3.5483379 5.0084157
-2.5749917 -3.005379 -3.5481713 5.0084157
-2.5808649 -2.9954371 -3.5480042 5.0084157
-2.5909436 -2.9879363 -3.5488365 5.0039911
-2.5967619 -2.9779449 -3.5486684 5.0873909
-2.6071222 -2.9698098 -3.54949 5.0829167
-2.6128838 -2.9597671 -3.5493212 4.918952
-2.6228819 -2.9521122 -3.5501509 4.9146438
-2.6285875 -2.9420204 -3.5499811 5.078465
-2.6385448 -2.9342885 -3.5508094 4.9908552
-2.6441944 -2.9241476 -3.5506389 4.9908552
-2.6498122 -2.9139891 -3.550468 5.2490029
-2.6550889 -2.9043779 -3.5503063 5.160037
-2.6649568 -2.8965111 -3.5511322 5.336452
-2.6704876 -2.8862872 -3.5509603 5.1555557
-2.6759865 -2.8760457 -3.5507879 5.2444444
-2.6814532 -2.8657875 -3.5506153 4.9865212
-2.6868877 -2.8555121 -3.5504422 5.2444444
-2.7009873 -2.8497338 -3.5522618 5.1466618
-2.7063713 -2.839397 -3.5520878 5.2353973
-2.7160857 -2.8312731 -3.5529094 5.3226781
-2.7257817 -2.8231049 -3.55373 5.052228
-2.7267046 -2.8104882 -3.5525594 5.0565448
-2.7319651 -2.8000708 -3.5523839 5.0565448
-2.7371929 -2.7896371 -3.5522079 5.0565448
-2.7423878 -2.7791867 -3.552032 5.1422486
-2.7431455 -2.7665734 -3.5508614 5.2353973
-2.7482677 -2.7561047 -3.5506849 5.1466618
-2.7577753 -2.7477393 -3.5515022 5.0565448
-2.7628386 -2.7372246 -3.5513251 5.0565448
-2.7723 -2.7287858 -3.5521412 5.052228
-2.7773037 -2.7182255 -3.5519631 5.052228
-2.7867184 -2.7097135 -3.552778 5.2219992
-2.7916622 -2.6991081 -3.5525992 5.133491
-2.8010306 -2.6905231 -3.5534129 5.4039211
-2.8059139 -2.6798725 -3.5532331 5.2175789
-2.8107636 -2.6692076 -3.5530534 5.1291456
-2.8155799 -2.6585264 -3.5528734 5.2175789
-2.8203626 -2.647831 -3.5526929 5.1291456
-2.8296006 -2.6390858 -3.5535035 4.9567947
-2.8388181 -2.6302972 -3.5543137 4.9526343
-2.8435121 -2.6195285 -3.554132 5.1205206
-2.8479145 -2.6093447 -3.5539603 5.2088051
-2.8570559 -2.6004572 -3.5547686 5.2957582
-2.8616562 -2.5896316 -3.5545859 5.3903255
-2.8662224 -2.5787911 -3.5544031 5.5899673
-2.8752861 -2.5698037 -3.5552096 5.2913504
-2.8797903 -2.5589211 -3.5550261 5.2913504
-2.8888028 -2.5498629 -3.5558314 5.2869668
-2.8932438 -2.5389373 -3.5556469 5.1077476
-2.8976507 -2.5279984 -3.5554624 5.580687
-2.906584 -2.5188408 -3.5562658 5.0184746
-2.9109275 -2.5078602 -3.5560806 4.9362044
-2.9152367 -2.4968657 -3.5558949 4.7048197
-2.9240887 -2.4876103 -3.5566969 4.9321489
-2.9329174 -2.4783127 -3.557498 5.0102496
-2.9371338 -2.4672494 -3.5573113 4.9281144
-2.9413152 -2.4561725 -3.5571241 4.9281144
-2.945462 -2.4450827 -3.5569367 5.0102496
-2.9541783 -2.4356604 -3.5577359 5.0910192
-2.9582608 -2.424531 -3.5575478 5.1787949
-2.9623079 -2.4133878 -3.5573597 4.8446794
-2.96632 -2.4022324 -3.5571711 4.6932831
-2.9749229 -2.3926868 -3.5579679 4.8407502
-2.9788702 -2.3814921 -3.5577788 5.1745949
-2.9827821 -2.3702846 -3.5575893 5.265377
-2.9866588 -2.3590651 -3.5573997 5.3594017
-2.995146 -2.3493979 -3.5581946 5.1704164
-2.9989569 -2.3381395 -3.5580041 4.9980693
-3.002733 -2.3268695 -3.5578136 5.0827823
-3.0062664 -2.3162141 -3.5576334 4.760066
-3.0053079 -2.3034148 -3.5564587 4.8407502
-3.0136445 -2.2936168 -3.5572515 5.0827823
-3.0172803 -2.2823005 -3.55706 4.8368411
-3.0255594 -2.2724359 -3.5578513 4.9121804
-3.0291288 -2.2610817 -3.5576591 4.756238
-3.0326622 -2.2497177 -3.557467 4.9121804
-3.0408533 -2.2397602 -3.5582566 4.9900517
-3.0443196 -2.228359 -3.5580637 5.0746288
-3.0477502 -2.2169471 -3.5578709 5.2526855
-3.0511451 -2.205524 -3.5576775 5.3464837
-3.0592141 -2.1954498 -3.558465 5.2484984
-3.0672567 -2.1853354 -3.5592523 5.4350357
-3.0752709 -2.1751814 -3.5600386 5.1498399
-3.0785344 -2.163672 -3.5598435 4.6670427
-3.0817621 -2.1521525 -3.5596488 4.8965693
-3.0802219 -2.1393385 -3.5584736 4.5988765
-3.0833728 -2.1278138 -3.5582786 4.7448726
-3.0817475 -2.1150243 -3.5571036 4.6025295
-3.0848217 -2.1034949 -3.5569084 4.6744437
-3.0876923 -2.0925977 -3.5567238 4.6025295
-3.0861106 -2.0791974 -3.5555387 4.6062012
-3.0890727 -2.0676548 -3.5553432 4.4687028
-3.0919981 -2.056103 -3.5551476 4.2771869
-3.0899649 -2.0440178 -3.5539846 4.0492296
-3.0882068 -2.0306704 -3.5528004 4.0524883
-3.086246 -2.0179853 -3.5516274 3.9490328
-3.0842416 -2.0053217 -3.5504546 3.850899
-3.0915973 -1.995533 -3.5512469 4.001687
-3.0942962 -1.9839737 -3.5510511 4.2271338
-3.1065266 -1.9745593 -3.5528078 4.5400453
-3.1091595 -1.9629529 -3.5526111 3.9952402
-3.1239038 -1.9417787 -3.5541685 2.2325702
-3.1168387 -1.9280851 -3.5520201 2.0954056
-3.1145253 -1.9154453 -3.5508475 1.972922
-3.1169722 -1.9038144 -3.5506504 1.8511367
-3.1193829 -1.8921754 -3.5504532 1.7957135
-3.1217566 -1.8805292 -3.5502555 1.8511367
-3.128907 -1.8698165 -3.5510321 1.9843906
-3.1360269 -1.8590662 -3.5518079 2.0094168
-3.1382966 -1.8473681 -3.5516095 2.0367556
-3.1405296 -1.8356626 -3.5514109 2.1854241
-3.1427259 -1.8239504 -3.5512123 2.7218463
-3.1497128 -1.8130963 -3.5519862 3.7395549
-3.1518383 -1.8013549 -3.5517869 4.2135835
-3.1539268 -1.7896075 -3.5515876 4.3994765
-3.160814 -1.7786727 -3.5523603 4.2703853
-3.1628315 -1.7668972 -3.5521605 4.0948901
-3.1648116 -1.7551148 -3.5519605 4.0948901
-3.166755 -1.7433269 -3.5517604 4.4615965
-3.1735067 -1.7322912 -3.5525312 4.5256171
-3.1752753 -1.721132 -3.5523419 4.595242
-3.1820633 -1.7093828 -3.5531006 4.3890543
-3.1838629 -1.6975405 -3.5528994 4.3254447
-3.19048 -1.6863909 -3.5536683 4.3220563
-3.1922073 -1.6745222 -3.5534668 4.2603126
-3.1938972 -1.6626481 -3.5532651 4.2603126
-3.1906886 -1.6501169 -3.5520942 4.2036014
-3.1923022 -1.6382477 -3.5518925 4.0884342
-3.1938782 -1.626374 -3.5516908 4.1452179
-3.1954169 -1.6144948 -3.5514891 4.0884342
-3.196918 -1.6026115 -3.5512872 4.0884342
-3.2032533 -1.5912986 -3.5520532 4.0852313
-3.2046819 -1.57939 -3.5518508 3.9239721
-3.2109482 -1.5680225 -3.5526159 3.8699894
-3.2073524 -1.5562228 -3.5514574 3.7277734
-3.2086704 -1.5443021 -3.5512547 3.5930347
-3.2099514 -1.532377 -3.5510521 3.4676964
-3.2111945 -1.5204479 -3.5508492 3.3135765
-3.2075171 -1.5080457 -3.5496802 3.2440836
-3.208684 -1.4961245 -3.5494776 3.0454662
-3.2146995 -1.4846387 -3.5502405 2.9526918
-3.2109056 -1.4722717 -3.5490723 2.8156197
-3.2119596 -1.4603403 -3.5488694 2.6887901
-3.2178667 -1.4487978 -3.5496311 2.5489049
-3.2188473 -1.4368441 -3.549428 2.4050152
-3.2148979 -1.4245257 -3.5482602 2.2107828
-3.220696 -1.4129285 -3.5490212 2.0150127
-3.2166688 -1.4006355 -3.5478539 1.8310165
-3.222394 -1.3890016 -3.5486143 2.3117976
-3.223187 -1.3770344 -3.5484107 2.2090509
-3.238637 -1.3659192 -3.551096 2.1101239
-3.2743387 -1.3436592 -3.5574241 1.5576216
0.42468232 -1.0235767 -2.8362463 45.515446
0.42507842 -1.0230399 -2.836237 45.515446
0.41800439 -1.0160756 -2.8380334 42.50248
0.41054791 -1.0096296 -2.839839 43.804115
0.40315235 -1.0031062 -2.8416433 43.409706
0.39969385 -0.99953264 -2.84254 43.214012
0.39625594 -0.99593592 -2.8434362 42.175793
0.39671773 -0.99533808 -2.8434258 42.175793
0.3933118 -0.99170768 -2.8443215 41.178463
0.38989979 -0.98808879 -2.8452175 40.993164
0.38653511 -0.98441339 -2.8461123 40.808804
0.37935004 -0.97764564 -2.8479123 38.236927
0.37220532 -0.97083127 -2.8497114 39.324486
0.36892354 -0.96706426 -2.8506048 38.423206
0.36566323 -0.96327496 -2.8514977 37.555569
0.36242452 -0.95946348 -2.8523901 38.079758
0.3630006 -0.95875949 -2.8523779 36.719765
0.3597956 -0.95491582 -2.8532698 36.555435
0.35661244 -0.95105022 -2.8541615 36.391953
0.35721487 -0.95032811 -2.8541491 37.053623
0.35781956 -0.94960779 -2.8541365 34.541515
0.3546828 -0.94570065 -2.8550274 36.229298
0.35533643 -0.94493204 -2.8550141 34.980011
0.35595798 -0.94420594 -2.8550014 34.387131
0.3565819 -0.9434818 -2.8549888 34.387131
0.3571732 -0.94279957 -2.8549769 34.980011
0.3578015 -0.94207931 -2.8549645 34.387131
0.35843199 -0.94136095 -2.8549521 33.814011
0.35906479 -0.9406445 -2.8549395 31.700636
0.36336261 -0.94321209 -2.8540254 30.878019
0.36764216 -0.9458046 -2.8531117 30.553795
0.37186933 -0.94845951 -2.8521991 29.80155
0.37974468 -0.95441669 -2.8503852 29.223284
0.37671459 -0.95044011 -2.8512747 27.912922
0.38093054 -0.95311952 -2.8503625 26.946144
0.38512769 -0.95582354 -2.8494508 25.417046
0.40065563 -0.96801698 -2.8458276 17.252502
0.4083429 -0.9742015 -2.8440175 15.861334
0.4088434 -0.97367275 -2.8440084 14.767449
0.42001998 -0.98333228 -2.8413 13.075212
0.38226253 -0.94454247 -2.8511722 12.990921
0.38640106 -0.94734073 -2.8502619 12.0631
0.39051998 -0.95016301 -2.8493524 10.855196
0.36736327 -0.84672612 -2.8657675 9.620965
0.36537939 -0.84207332 -2.8666451 9.8761301
0.36922431 -0.84535331 -2.8657434 10.293398
0.37304646 -0.84865451 -2.8648419 10.926674
0.37684584 -0.85197675 -2.8639407 11.429948
0.38062227 -0.85531986 -2.86304 12.051373
0.38437575 -0.85868382 -2.8621397 12.906793
0.38810608 -0.86206847 -2.8612397 14.289231
0.38333589 -0.85338962 -2.8630061 15.158369
0.3673656 -0.82853031 -2.8683262 13.891649
0.36835206 -0.82784253 -2.868314 22.762218
0.36934066 -0.82715786 -2.8683019 25.190189
0.38698211 -0.85085583 -2.8629615 31.294697
0.37506896 -0.82920313 -2.8673785 35.1418
0.37331647 -0.82445031 -2.8682544 29.988321
0.37703979 -0.82787901 -2.8673551 29.194725
0.37531701 -0.82311535 -2.8682308 29.988321
0.37632048 -0.82245255 -2.8682191 29.988321
0.37732595 -0.82179296 -2.8682075 33.736858
0.37833357 -0.82113647 -2.868196 35.646496
0.37934321 -0.82048315 -2.8681843 37.044395
0.38035482 -0.81983304 -2.8681729 37.785286
0.38136858 -0.81918609 -2.8681614 38.556412
0.38238436 -0.81854236 -2.8681502 38.556412
0.38340211 -0.81790185 -2.8681388 39.359669
0.38442189 -0.81726444 -2.8681276 37.044395
0.38544357 -0.81663036 -2.8681164 40.197109
0.38646734 -0.81599939 -2.8681054 38.556412
0.38749313 -0.81537163 -2.8680942 37.044395
0.38852084 -0.81474715 -2.8680832 37.785286
0.38955039 -0.8141259 -2.8680723 39.359669
0.39058203 -0.81350791 -2.8680613 39.359669
0.39155811 -0.81292719 -2.8680511 39.359669
0.39010382 -0.80807066 -2.8689251 38.385998
0.39115438 -0.80745447 -2.8689141 39.185703
0.39220682 -0.80684149 -2.8689034 39.185703
0.39326125 -0.80623186 -2.8688924 40.019444
0.39431763 -0.8056255 -2.8688817 38.385998
0.39537591 -0.80502248 -2.8688712 37.618279
0.39649495 -0.8043896 -2.8688598 39.185703
0.39755702 -0.80379343 -2.8688493 39.185703
0.39862099 -0.8032006 -2.8688388 40.019444
0.39725843 -0.79833031 -2.8697126 39.012642
0.39833957 -0.79773653 -2.8697021 40.708843
0.39942253 -0.7971462 -2.8696916 39.842697
0.40050727 -0.79655933 -2.8696811 39.842697
0.40159392 -0.7959758 -2.8696709 39.842697
0.40274292 -0.79536355 -2.8696599 39.012642
0.40383333 -0.79478705 -2.8696496 39.012642
0.40492547 -0.79421401 -2.8696396 40.708843
0.40601945 -0.79364437 -2.8696294 39.842697
0.40711534 -0.79307806 -2.8696194 39.842697
0.40815181 -0.79254657 -2.8696098 39.842697
0.40931213 -0.79195607 -2.8695993 39.842697
0.41041315 -0.79140025 -2.8695896 39.012642
0.409325 -0.78644085 -2.8704617 38.047787
0.4103812 -0.78591585 -2.8704524 39.666843
0.41150123 -0.78536338 -2.8704424 40.529167
0.41262293 -0.78481448 -2.8704326 38.84045
0.41160995 -0.77983522 -2.8713045 40.350403
0.41274908 -0.77928662 -2.8712947 38.669136
0.41388977 -0.7787416 -2.871285 37.879971
0.41503224 -0.77820027 -2.8712754 39.491882
0.41409576 -0.77320212 -2.8721468 40.172565
0.41525549 -0.77266145 -2.8721371 40.172565
0.41641712 -0.77212429 -2.8721275 41.065289
0.41758025 -0.77159089 -2.872118 39.317829
0.41880983 -0.7710318 -2.872108 39.317829
0.41997647 -0.77050591 -2.8720984 39.317829
0.41914904 -0.76548445 -2.8729696 38.329136
0.42026722 -0.76498872 -2.8729608 38.329136
0.41948435 -0.75995624 -2.8738315 38.160435
0.42068568 -0.75943249 -2.8738222 38.972359
0.42188853 -0.75891256 -2.8738127 38.160435
0.4230932 -0.75839639 -2.8738036 38.972359
0.42429933 -0.75788403 -2.8737943 36.634018
0.42557427 -0.75734723 -2.8737848 39.819584
0.42678377 -0.75684261 -2.8737757 36.634018
0.42612654 -0.75178814 -2.8746459 37.992592
0.42920744 -0.75584483 -2.8737576 38.160435
0.42674226 -0.74622089 -2.8755071 36.312584
0.42981195 -0.75029117 -2.874619 33.157173
0.43466556 -0.75895363 -2.8728523 30.160635
0.44352239 -0.77134305 -2.8701913 24.857891
0.44819677 -0.78009272 -2.8684261 23.511423
0.45852 -0.79724121 -2.8648894 13.295639
0.45615089 -0.7876209 -2.8666389 11.295579
0.44131392 -0.73540461 -2.8762736 10.759851
0.44259202 -0.73494959 -2.8762653 9.7185745
0.44062352 -0.72520512 -2.8780124 9.0955744
0.47625864 -0.73984432 -2.873467 18.135653
0.46980974 -0.71098757 -2.8787153 43.511589
0.45337564 -0.64403951 -2.8909683 43.029469
0.45494002 -0.64362276 -2.8909607 30.511805
0.4527832 -0.62891954 -2.8935797 24.723005
0.46448451 -0.66148806 -2.8874364 23.716887
0.46351659 -0.65157712 -2.8891804 18.400078
0.54072011 -0.90662467 -2.8418593 10.754827
0.54146177 -0.90648103 -2.8418565 10.918606
0.54129398 -0.9015016 -2.8427279 10.706401
0.54290527 -0.90620852 -2.8418512 10.974313
0.54368961 -0.90606421 -2.8418486 10.974313
0.54443306 -0.90592998 -2.841846 11.030592
0.54436982 -0.90094137 -2.8427172 10.980924
0.54592121 -0.90566844 -2.841841 11.030592
0.545847 -0.90068668 -2.8427124 10.980924
0.54741096 -0.90541625 -2.841836 11.087451
0.54894495 -0.91015315 -2.84096 11.137631
0.54890227 -0.90517342 -2.8418314 11.030592
0.55040658 -0.90991992 -2.8409555 11.372108
0.55188066 -0.91467345 -2.8400795 11.188068
0.55186963 -0.90969586 -2.840951 11.195339
0.55331391 -0.91445857 -2.8400755 11.30461
0.55403107 -0.91435444 -2.8400733 11.363797
0.55543029 -0.91912836 -2.8391979 11.47537
0.55546629 -0.9141531 -2.8400693 11.246037
0.55683559 -0.91893566 -2.8391941 11.536086
0.55753869 -0.91884261 -2.8391922 11.47537
0.55824214 -0.91875178 -2.8391905 11.597448
0.55894578 -0.91866314 -2.8391886 11.47537
0.56023973 -0.92346442 -2.8383136 11.348216
0.56035393 -0.91849256 -2.8391852 11.597448
0.56105834 -0.91841054 -2.8391836 11.597448
0.56176317 -0.91833079 -2.8391819 11.536086
0.56246811 -0.91825324 -2.8391802 11.355835
0.56368673 -0.92307425 -2.8383057 11.588389
0.56437689 -0.92300272 -2.8383043 11.588389
0.56554991 -0.92783284 -2.8374298 11.702882
0.56575781 -0.92286611 -2.8383014 11.588389
0.56690055 -0.9277035 -2.8374271 11.640963
0.56713951 -0.92273825 -2.8382986 11.407321
0.56825191 -0.92758274 -2.8374245 11.519068
0.568928 -0.92752546 -2.8374233 11.702882
0.5696041 -0.92747039 -2.8374221 11.640963
0.57028043 -0.9274174 -2.8374209 11.702882
0.57095695 -0.92736655 -2.8374197 11.765464
0.57163352 -0.92731786 -2.8374188 11.702882
0.57231039 -0.92727125 -2.8374176 11.765464
0.57294965 -0.92722923 -2.8374166 11.702882
0.57362676 -0.92718673 -2.8374157 11.765464
0.57430393 -0.92714643 -2.8374147 11.640963
0.57498121 -0.92710823 -2.8374138 11.765464
0.57565874 -0.92707217 -2.8374131 11.640963
0.57637388 -0.92703635 -2.8374121 11.82872
0.57705152 -0.92700469 -2.8374114 11.892659
0.57793528 -0.93189406 -2.8365381 11.946643
0.57859772 -0.93186724 -2.8365374 12.01157
0.57926023 -0.93184245 -2.8365366 12.01157
0.57988596 -0.93182105 -2.8365359 12.077208
0.58044112 -0.92687809 -2.8374078 12.022633
0.58111924 -0.92685914 -2.8374074 11.892659
0.5817225 -0.92191947 -2.8382792 12.034098
0.58237767 -0.9219054 -2.8382785 11.968337
0.58307129 -0.92189252 -2.8382781 11.903292
0.58376503 -0.92188191 -2.8382778 11.903292
0.58456248 -0.93171948 -2.8365326 12.077208
0.58518863 -0.93171376 -2.8365321 12.143566
0.58589524 -0.94155622 -2.8347871 12.120962
0.58652097 -0.93663108 -2.8356593 12.000904
0.58716851 -0.9366312 -2.835659 12.198721
0.58781606 -0.93663335 -2.8356588 11.936383
0.58849961 -0.93663788 -2.8356586 12.066126
0.58914709 -0.9366442 -2.8356586 12.066126
0.58972311 -0.94157535 -2.8347859 12.187197
0.59035516 -0.94158554 -2.8347859 12.25416
0.59108955 -0.93667543 -2.8356583 11.936383
0.59170097 -0.93668902 -2.8356583 12.000904
0.59234834 -0.93670547 -2.8356583 11.872551
0.59299564 -0.93672383 -2.8356583 12.000904
0.59364283 -0.93674433 -2.8356583 12.000904
0.59474319 -0.94171083 -2.8347864 11.990629
0.59667283 -0.9417963 -2.8347871 11.926508
1.1266668 2.6933613 -3.4860041 1.5587908
1.1372769 2.6819012 -3.4842827 1.5611475
1.1499691 2.6850252 -3.4851809 1.65583
1.16342 2.6929748 -3.4869528 1.5741919
1.1754302 2.6911457 -3.4869792 1.5997194
1.1867687 2.6893833 -3.487005 1.6350724
1.1979918 2.6826193 -3.4861598 1.6362998
1.2099694 2.6806815 -3.4861882 1.6096209
1.2217996 2.6737387 -3.4853456 1.65583
1.2337492 2.6717262 -3.4853754 1.646631
1.2448549 2.6648247 -3.4845324 1.9260911
1.2576299 2.6675885 -3.4854367 1.7642477
1.2695608 2.6654634 -3.4854684 1.646631
1.2808239 2.6634219 -3.4854987 1.6375337
1.2936389 2.6660643 -3.4864049 1.7021278
1.3055649 2.6638262 -3.4864385 1.6924014
1.3174829 2.6615505 -3.4864728 1.7021278
1.3293946 2.6592374 -3.4865077 1.7734746
1.34196 2.6567552 -3.4865451 1.8744953
1.3528817 2.6495397 -3.4857075 1.9628713
1.3644242 2.6421573 -3.4848726 2.2302108
1.3715965 2.6205571 -3.4814129 2.2203543
1.3854203 2.6277065 -3.4831984 2.285157
1.3972245 2.6251802 -3.4832368 1.9937612
1.4100718 2.6274266 -3.4841499 1.9658519
1.4212204 2.6249683 -3.4841874 2.2488155
1.4330159 2.6223297 -3.4842279 2.3011136
1.4458992 2.6244535 -3.4851429 2.3729441
1.4572377 2.6167893 -3.484313 2.6038916
1.4701333 2.61883 -3.4852295 2.8520963
1.4830495 2.6208267 -3.4861467 2.9345899
1.4948335 2.6179938 -3.4861903 3.0874331
1.5054371 2.6103418 -3.4853606 3.4490469
1.5165339 2.6076009 -3.4854031 3.5737109
1.528275 2.6046627 -3.4854484 3.6172931
1.5400062 2.6016881 -3.4854946 3.707725
1.5505004 2.5939093 -3.4846668 3.8056877
1.5634418 2.5956278 -3.485589 3.7546585
1.5757951 2.59237 -3.4856396 3.8521821
1.5862134 2.5844905 -3.4848137 4.0663514
1.5978818 2.5813339 -3.484863 4.0663514
1.6095402 2.5781403 -3.4849129 4.1228285
1.6198683 2.5701678 -3.4840884 4.125978
1.6314917 2.5669055 -3.4841397 4.125978
1.6431046 2.5636063 -3.4841914 4.1840906
1.6526997 2.5557263 -3.4833655 4.2471199
1.668411 2.5665393 -3.4860442 4.2374005
1.6758437 2.5489593 -3.4834721 4.2471199
1.6866336 2.540612 -3.4826541 4.2503924
1.6967409 2.5324273 -3.4818332 4.3787904
1.7068074 2.5242152 -3.4810131 4.4475994
1.7182863 2.5206802 -3.4810688 4.4475994
1.7297528 2.5171087 -3.4811254 4.4475994
1.741209 2.5135014 -3.4811823 4.4475994
1.7526538 2.5098579 -3.48124 4.5149875
1.7625759 2.5014937 -3.4804225 4.5185132
1.773982 2.4977834 -3.4804814 4.5880289
1.7838366 2.489362 -3.4796648 4.5916257
1.7952056 2.485585 -3.4797246 4.6633701
1.8065624 2.4817719 -3.4797854 4.8927164
1.8179073 2.4779234 -3.4798465 4.8927164
1.8308382 2.4786949 -3.4807847 4.8888836
1.8405597 2.47012 -3.4799707 5.0585713
1.8518679 2.4661646 -3.4800339 4.9742618
1.8615208 2.4575331 -3.4792209 4.978179
1.8721635 2.4537363 -3.4792814 4.978179
1.8834202 2.449682 -3.4793463 4.8965693
1.8946631 2.4455924 -3.4794116 4.595242
1.9058938 2.4414675 -3.4794776 4.8965693
1.9160185 2.4324613 -3.4786708 4.9004421
1.9272089 2.4282689 -3.4787381 4.9004421
1.9383852 2.4240415 -3.4788058 4.9821162
1.9495473 2.4197798 -3.4788742 4.8214025
1.9606969 2.4154825 -3.4789429 5.0665588
1.971832 2.4111502 -3.4790125 4.9821162
1.9823368 2.4070265 -3.4790788 4.9821162
1.9922476 2.3978052 -3.4782758 4.9860735
2.0033271 2.3933742 -3.4783468 4.9860735
2.0143936 2.3889079 -3.4784188 5.1580067
2.025445 2.384407 -3.4784913 5.1580067
2.036483 2.3798718 -3.4785643 5.2484984
2.0475075 2.3753011 -3.4786379 5.1580067
2.058516 2.3706965 -3.4787121 5.3422217
2.0675952 2.3615232 -3.4779086 5.4436927
2.0785613 2.3568552 -3.477984 5.2526855
2.0895116 2.3521535 -3.4780598 5.3464837
2.1004488 2.3474164 -3.4781365 5.2526855
2.1087918 2.3384013 -3.4773307 5.1662583
2.1202898 2.3333366 -3.4774125 5.4480543
2.1311669 2.3285031 -3.4774907 5.3507676
2.1400135 2.3191454 -3.4766903 5.4524393
2.150847 2.3142498 -3.4767697 5.2611256
2.1616626 2.3093216 -3.4768496 5.5534101
2.1724651 2.304358 -3.4769299 5.2611256
2.1811802 2.2948956 -3.4761314 5.3594017
2.1913383 2.2901514 -3.4762082 5.265377
2.2020807 2.285095 -3.4762902 5.4568453
2.2128043 2.2800059 -3.476373 5.0868902
2.2241089 2.2745965 -3.4764607 5.0868902
2.2348011 2.2694368 -3.4765446 5.1745949
2.2454762 2.2642448 -3.4766288 4.9201069
2.2561359 2.2590187 -3.4767139 5.0021086
2.2645965 2.2493474 -3.4759192 5.1787949
2.2752101 2.244061 -3.4760051 5.1787949
2.2858062 2.2387414 -3.4760919 5.2696514
2.2963848 2.2333891 -3.4761789 5.2696514
2.3047101 2.223619 -3.4753857 5.3681245
2.3152428 2.2182066 -3.4754739 5.0951695
2.3234925 2.2083921 -3.4746819 5.0993404
2.3316984 2.1985581 -3.4738898 4.7794995
2.3421507 2.1930616 -3.4739795 4.7048197
2.3525863 2.1875322 -3.4740698 5.1035337
2.3630052 2.1819696 -3.4741604 4.7794995
2.3734045 2.1763754 -3.4742517 4.7048197
2.3814423 2.1664209 -3.4734621 4.9402804
2.3917935 2.1607687 -3.4735544 4.7834463
2.4021275 2.1550829 -3.4736471 4.9402804
2.4124444 2.1493649 -3.4737406 5.1958122
2.4203408 2.1393192 -3.4729526 5.1119828
2.4306083 2.133544 -3.473047 5.026783
2.4432826 2.1320186 -3.4740243 4.8605986
2.4510858 2.1218982 -3.4732375 4.8646288
2.4612973 2.1160269 -3.4733336 4.8646288
2.4714899 2.1101239 -3.4734304 5.2913504
2.4816651 2.1041882 -3.4735274 4.9443769
2.4893267 2.0939782 -3.4727423 4.9484954
2.4969437 2.0837517 -3.4719574 5.0351787
2.5070355 2.0777366 -3.4720559 4.9526343
2.5171072 2.0716901 -3.4721551 5.0351787
2.5271618 2.0656111 -3.4722548 5.1205206
